ply
            format ascii 1.0
            element vertex 4219
            property float x
            property float y
            property float z
            property uchar blue
            property uchar green
            property uchar red
            end_header
47.769684 -158.407104 743.814993 103 88 104
49.007142 -161.071539 746.449661 63 51 56
47.088730 -157.786942 756.482935 109 95 120
61.785865 -179.025066 710.540390 117 99 112
61.785865 -179.025066 710.540390 117 99 112
63.393182 -180.900908 704.300117 104 88 98
64.374959 -182.572818 706.041098 66 50 61
63.782364 -180.545735 709.173918 34 24 28
59.134722 -172.467613 728.112888 35 22 26
78.817534 -207.160091 666.538858 93 83 91
78.285015 -206.428838 695.207644 94 58 54
80.245000 -209.671998 695.619535 160 131 127
83.120501 -213.930440 687.352180 91 80 84
84.208781 -215.556335 692.351770 91 79 80
84.208781 -215.556335 692.351770 91 79 80
77.602768 -203.014636 715.187550 121 100 99
72.506493 -195.340526 735.520077 16 16 15
81.834519 -211.456394 710.718632 174 143 141
81.054497 -209.432578 713.379478 177 147 144
80.502975 -206.048799 715.499306 88 72 75
63.076806 -177.638316 781.487036 125 106 113
85.184824 -217.661285 705.968380 78 66 80
85.184824 -217.661285 705.968380 78 66 80
76.699150 -197.904003 731.968021 99 82 89
87.798691 -221.034551 709.098339 75 68 77
99.113363 101.100612 448.939514 153 123 104
78.459364 -201.786065 741.340685 60 46 48
78.459364 -201.786065 741.340685 60 46 48
88.875520 -222.410274 713.682127 78 71 75
56.971389 -173.228788 839.778423 77 67 77
52.887237 -163.652456 852.214527 25 19 21
82.014084 -205.497217 748.794746 106 84 92
60.076785 -174.319494 852.265644 179 145 139
60.076785 -174.319494 852.265644 179 145 139
81.807750 -206.410313 781.023026 109 87 105
45.677295 -161.555505 941.267109 81 56 61
82.167739 -204.581237 804.034519 182 154 150
97.995931 -234.405494 751.936388 71 65 75
96.615797 -219.750619 774.979877 171 138 130
67.734671 -172.976232 931.868553 62 72 72
105.127275 -242.933846 779.722261 76 66 74
105.144870 -243.329573 789.133215 88 76 92
103.814888 117.971385 507.474184 132 111 99
109.698248 -248.626328 797.934341 68 60 69
110.097754 -249.371791 805.034542 36 25 27
85.019583 -243.743944 980.442619 173 141 137
114.086068 -253.393006 812.652588 19 14 16
55.816549 -141.608655 1118.412685 93 66 73
74.753451 -146.140873 1071.568203 46 34 35
100.535893 -211.024308 958.695030 129 100 94
125.266469 -289.075065 880.066872 24 14 15
120.862901 -258.220744 863.613796 183 149 143
123.489225 -263.548422 847.339058 73 62 69
123.489225 -263.548422 847.339058 73 62 69
53.582680 -102.335989 1207.560539 138 119 117
51.724619 -90.410274 1210.476494 119 100 108
83.330202 -159.821153 1081.612778 83 65 60
126.568794 -267.122626 867.567062 117 95 102
63.429612 -99.637896 1188.694859 118 97 99
113.141453 113.509810 558.786678 68 50 44
62.274140 -33.360139 1143.594456 92 75 84
131.345558 -270.991302 872.366905 77 64 67
113.592112 114.904833 565.893078 99 82 75
134.012485 -286.807680 885.810089 63 47 56
132.938755 -239.834213 797.971487 41 29 33
134.591985 -275.256777 894.722652 97 82 88
82.886946 -88.643801 1124.633217 117 98 94
137.717617 -279.090858 896.952724 30 25 24
133.510339 -260.315537 963.503551 152 113 109
94.745159 -69.681776 1174.124813 48 41 38
96.434659 28.399014 1044.591904 161 130 125
96.159470 -29.622692 1156.721878 175 143 131
99.610221 -49.296418 1150.130939 164 130 116
96.706456 -18.290737 1139.361477 173 136 123
95.178264 -10.735577 1169.261074 92 74 91
116.162026 86.860466 833.471394 173 137 129
116.877806 40.452510 925.248051 185 150 139
126.340103 115.933692 748.035049 108 100 90
125.817740 103.082740 807.292938 68 37 27
165.120041 -277.680278 1078.831577 156 120 112
127.874506 111.061645 788.406181 124 84 100
172.960722 -298.308897 1062.449169 163 129 119
134.791708 146.589911 623.320246 61 46 44
131.387794 105.211210 819.958878 67 36 28
134.193456 102.258754 842.426682 147 102 101
136.066914 118.525338 799.351263 179 148 135
185.517836 -207.704878 1239.528084 163 124 114
153.630257 123.498809 841.439438 170 137 132
208.814120 -241.827321 1267.282581 214 176 163
232.395267 -344.464493 1237.779999 167 128 121
232.395267 -344.464493 1237.779999 167 128 121
247.426057 -415.600348 1193.529510 133 99 97
188.917959 4.795996 1173.921299 142 109 96
245.847845 -362.874389 1258.559704 176 136 133
220.645905 -160.164869 1353.901577 185 152 148
254.231882 -368.124723 1286.783409 164 126 121
254.231882 -368.124723 1286.783409 164 126 121
208.004522 16.378677 1202.065754 172 137 131
223.658967 -51.201183 1305.596733 153 119 108
184.381771 125.763512 779.086781 93 56 42
236.226940 -91.850740 1323.424625 91 73 70
224.290204 13.468342 1217.219067 59 36 31
228.649473 -16.404285 1203.608418 111 81 71
202.636027 121.716487 1016.396141 57 42 41
196.314514 150.698280 910.372639 61 49 49
200.001431 142.584348 917.999840 166 134 124
225.485039 56.660897 1184.189892 182 148 137
225.485039 56.660897 1184.189892 182 148 137
225.438166 56.412083 1182.151794 182 148 137
225.438166 56.412083 1182.151794 182 148 137
261.082053 -137.440503 1341.669750 116 93 100
252.503443 -83.234572 1323.097992 29 24 22
236.846638 6.572799 1262.226582 149 118 109
251.453829 -81.065422 1301.337051 29 24 22
220.374918 80.455047 1137.441063 179 147 136
205.396605 142.072916 995.758247 179 143 131
203.325462 142.780828 945.637226 176 141 127
284.738207 -246.133924 1425.966644 201 166 153
241.101122 38.806501 1202.815342 128 101 93
241.101122 38.806501 1202.815342 128 101 93
241.101122 38.806501 1202.815342 128 101 93
350.471091 -516.802645 1486.009789 169 133 123
306.153917 -181.672108 1543.373299 144 125 127
233.637691 106.255639 1106.841660 75 52 47
359.742832 -530.421448 1518.937874 167 130 119
359.300184 -528.690624 1514.678764 167 130 119
253.699541 56.109804 1237.848568 114 93 100
311.617374 -166.219711 1557.255459 134 112 122
257.125878 47.533649 1251.699829 66 49 52
252.213502 78.641194 1235.161877 129 107 120
255.760264 64.750725 1252.557087 58 43 54
199.693835 148.581755 663.719320 57 38 32
324.352217 -184.166646 1587.442589 77 54 65
331.739187 -197.411990 1597.089958 60 46 57
331.739187 -197.411990 1597.089958 60 46 57
349.857593 -227.765775 1645.712471 46 33 37
337.379932 -79.312956 1720.962334 38 29 34
353.759336 -233.769321 1646.763611 109 86 100
381.919360 -383.778310 1688.953018 141 112 115
382.196045 -134.022522 2063.284874 135 109 112
388.191342 -130.649745 2088.619423 139 116 120
372.645497 -259.751606 1704.797363 42 33 37
416.444778 228.238273 2769.079399 167 150 152
384.551597 -277.517080 1741.554832 74 52 63
425.315809 -293.377280 2011.121368 160 139 138
431.076193 -291.819334 2055.531311 71 56 65
418.729162 -334.154654 1827.649879 87 62 75
462.652063 -444.818878 2037.727737 93 73 71
489.458036 -363.061094 2313.570595 68 53 56
450.886583 -431.985807 1852.553940 176 139 132
437.014246 -372.342539 1795.911598 59 41 40
456.755972 -371.666837 1922.060966 88 64 71
233.132172 167.911518 740.993071 92 62 57
1030.846405 -745.419168 5721.998978 139 112 124
470.917463 -369.535232 1944.822693 116 94 107
231.984138 172.534955 735.769320 93 62 54
545.060444 -597.810364 2237.310791 198 164 155
516.702938 -394.917560 2251.959991 131 106 117
495.410013 -457.815027 1963.145256 95 73 63
-995.901394 539.984322 -7736.300659 90 71 71
505.049467 -416.639614 2055.197716 75 52 61
613.983107 -464.528656 2730.533981 120 94 104
1348.890495 -1036.580467 7248.629761 148 123 120
1396.543312 -1142.808914 7474.848175 68 55 59
1396.543312 -1142.808914 7474.848175 68 55 59
220.164537 157.281971 589.325714 77 50 42
-919.859791 454.214859 -6787.380219 29 22 23
599.934959 -730.382919 2203.057480 184 147 135
-1057.846737 516.771698 -7455.345154 112 86 84
565.511370 -469.558764 2223.637199 71 48 61
-303.769231 628.466606 -2352.304459 108 87 106
635.034084 -804.238319 2297.263908 187 151 143
1889.298439 -1477.355099 9684.881592 133 109 114
641.843605 -781.307697 2335.075569 181 144 129
-319.248652 625.153112 -2348.705673 72 51 58
659.702730 -769.684124 2407.685089 171 130 118
577.097464 -498.815012 2098.710251 89 70 63
667.380953 -775.468922 2367.947960 60 38 33
662.747049 -717.227364 2382.047462 66 44 39
636.059618 -582.077456 2339.437294 50 35 30
751.381016 -950.448704 2617.234230 180 144 136
679.177189 -527.252245 2563.615417 51 42 50
647.042370 -576.948404 2321.941376 129 105 112
713.180447 -808.082294 2471.852303 118 93 98
714.710236 -838.403702 2445.011902 122 100 101
-859.362793 -47.658017 -5777.565765 255 190 172
-885.368538 -128.095305 -5988.860321 255 190 173
-874.636650 -161.279964 -5943.533325 66 40 31
780.526543 -966.665077 2681.769180 174 133 121
806.044865 -1017.438602 2753.404427 171 136 122
734.498072 -856.877518 2496.301842 35 25 24
678.211498 -579.830313 2425.682640 136 113 118
758.011818 -590.606833 2809.040833 89 66 76
804.390049 -926.282501 2767.217636 23 20 21
762.112570 -680.046225 2746.778107 62 42 41
845.379639 -861.707592 3032.487679 138 115 110
845.379639 -861.707592 3032.487679 138 115 110
825.266361 -798.423338 2957.192612 94 71 70
804.308510 -750.612020 2885.465431 139 114 110
781.703949 -698.217916 2799.014473 143 118 111
732.232380 -629.883909 2590.263367 157 135 127
818.473816 -768.339252 2918.770409 83 59 58
779.110098 -618.982220 2828.825188 72 51 58
840.958214 -817.856407 2981.038666 161 136 132
768.764544 -623.067236 2758.423996 114 88 101
778.550673 -607.957554 2820.267105 117 92 89
752.981710 -628.021431 2656.619644 109 88 73
817.588234 -981.097317 2683.711243 123 100 105
836.455631 -789.389753 2942.168999 113 84 79
796.432590 -701.331472 2792.594337 165 141 136
820.243168 -634.818411 2961.196327 104 83 92
849.187660 -774.857855 2990.862465 48 33 30
841.888142 -664.913559 3021.964645 109 87 101
867.914581 -801.151276 3041.692734 165 139 128
924.811935 -966.725063 3185.719299 188 159 146
476.215458 -278.528166 1437.463188 29 20 22
914.464474 -850.608635 3192.687798 81 58 50
972.184181 -1028.489399 3335.168076 115 86 82
883.907318 -691.112423 3129.371071 103 82 94
846.674728 -708.507538 2930.951118 124 102 86
928.630543 -836.859131 3220.278549 135 111 98
-951.783466 654.375362 -4931.077957 96 74 78
-704.196930 237.399125 -3991.080856 36 26 28
-689.706564 271.874809 -3832.084274 125 97 107
380.010653 -172.412443 987.287426 108 89 107
1056.744576 -806.409264 3739.659119 107 90 92
-736.209631 250.276184 -4040.582275 67 45 50
1185.137844 -1281.628132 3955.384064 116 86 82
1125.405121 -850.168896 3999.532318 29 25 27
1033.259869 -789.091492 3586.841965 33 21 24
1219.568825 -1346.454144 4023.257446 156 133 127
1191.493893 -1269.319057 3938.417053 170 144 139
1235.466194 -1335.361004 4093.708038 117 91 86
-672.708035 218.730426 -3661.479950 97 80 82
1285.156155 -1482.614994 4195.270538 97 75 70
1286.848545 -1433.804226 4206.982803 121 114 118
1317.884731 -1445.828152 4318.077087 145 124 115
1222.423840 -1246.657658 3987.754059 177 146 137
1127.279949 -839.301014 3837.296295 112 87 94
1332.161427 -1482.998466 4267.211533 104 83 78
-571.895075 329.405928 -2979.310799 17 12 12
1397.520256 -1531.280804 4407.818985 93 67 64
341.826057 231.683087 999.083710 96 65 60
1311.789894 -1255.326843 4186.400604 110 82 74
1511.757374 -1606.326103 4801.496506 173 149 144
1362.957573 -1342.008877 4342.213058 132 103 94
1707.521820 -1790.204430 5504.774094 151 130 126
1316.536045 -1202.508736 4225.942993 117 85 84
1322.490215 -1266.494274 4197.821808 153 126 118
1522.162056 -1616.116142 4807.203293 121 98 99
1479.384708 -1603.371239 4621.734238 102 81 81
1318.749332 -1207.181263 4190.887070 169 143 135
1583.914948 -1701.243019 4977.737808 167 148 141
1671.343803 -1773.200607 5290.396500 168 149 145
1878.549957 -1966.878891 6036.810303 113 89 85
1491.222095 -1474.437141 4714.750290 195 168 161
1354.029751 -976.427174 4473.905945 115 90 104
-699.715281 367.726135 -3320.951080 96 72 76
1773.799324 -1910.037041 5568.264008 112 92 93
1709.555244 -1850.410080 5338.847733 107 87 88
1769.480515 -1816.060448 5608.968353 157 132 127
1434.148502 -1307.662201 4522.275162 132 107 101
1434.148502 -1307.662201 4522.275162 132 107 101
1876.495743 -1918.943787 5933.409500 134 105 101
1976.424026 -2055.260277 6250.779724 112 86 80
-2127.011299 1276.601696 -8484.513092 127 97 94
-654.440069 309.381604 -3069.816780 104 80 84
-654.440069 309.381604 -3069.816780 104 80 84
309.074259 11.919671 679.773045 88 70 71
2044.347954 -1936.939812 6386.422348 158 129 124
1875.368500 -1458.417416 5945.833969 173 144 134
1976.411819 -1511.256123 6153.100967 92 63 56
2468.700409 -2063.080978 7596.562958 179 152 141
2417.211342 -1983.031082 7435.886383 84 57 57
3006.642532 -2872.750473 9018.021393 175 148 139
2567.486000 -1937.420082 7913.899231 168 140 130
3059.637260 -3029.372406 8964.324188 39 29 22
3133.752823 -3119.484138 9104.795074 96 72 72
-1327.671146 588.018656 -4954.726791 120 92 91
-964.438057 -407.333803 -3964.324570 66 51 60
-1058.470249 1.980114 -3959.689331 142 112 99
-1263.266850 98.384374 -4586.072922 91 68 73
-1432.874489 -351.774335 -5037.458801 49 35 38
-2184.105301 -933.839798 -7651.499939 40 22 19
-1608.002663 -618.952417 -5673.009491 49 35 40
-1396.773148 -12.178864 -4683.939362 139 112 99
-1879.678345 -727.263975 -6385.169983 133 103 95
530.118656 339.904475 1331.502342 75 53 47
-1928.761292 590.116024 -5795.525360 103 76 79
-3348.531342 1471.497154 -9538.280487 90 67 71
-2563.410759 189.351559 -7808.372498 24 22 22
-1894.337654 -795.658112 -6307.566452 42 28 31
-2142.734337 -938.790417 -6993.724060 92 74 70
-2268.574524 781.519222 -6530.093384 123 101 101
-2597.285271 1440.605545 -7110.881042 167 136 121
-2476.621246 919.925976 -7001.295471 45 33 35
-2243.335915 -925.419044 -7179.061127 45 27 26
-1755.664444 -26.176816 -5364.250565 146 116 103
-2092.008972 112.787306 -6241.028976 115 93 89
-2043.613434 555.253410 -5828.068542 131 108 105
-2587.791252 -986.879826 -8000.466156 137 109 95
-1944.327354 72.248656 -5693.346786 42 31 35
-1945.354080 448.919630 -5525.050735 103 80 85
-1945.354080 448.919630 -5525.050735 103 80 85
-2367.256165 155.232108 -6817.732239 24 19 21
-2672.337914 217.725873 -7629.351044 47 34 37
-2189.869690 673.261356 -6061.970520 96 73 80
-2859.786034 206.802249 -8046.079254 104 88 96
-2207.006836 -1045.537663 -6788.507843 47 33 42
-2046.364594 539.572859 -5639.945221 91 69 73
-2095.409393 99.870396 -5964.770126 107 86 87
-2094.134331 39.383101 -5973.591995 122 101 101
-2673.157310 -450.837183 -7683.721161 108 87 90
-2021.538925 539.748192 -5508.106613 30 22 23
-1797.013474 815.934086 -4757.092667 181 148 135
-1923.193932 426.355314 -5226.222229 30 21 23
-1962.651634 448.081017 -5293.660355 95 75 86
211.260366 15.449016 223.605061 58 44 50
-1899.349213 336.351871 -5155.073929 33 26 29
-1899.349213 336.351871 -5155.073929 33 26 29
-1424.134636 645.296526 -3744.867325 188 154 143
-2256.127739 -106.642616 -6174.652863 38 30 34
-2491.217041 -178.494370 -6793.679047 104 85 94
-1968.180466 -287.425566 -5446.997452 68 51 54
-2999.963951 -779.525042 -8253.009033 105 86 94
-3432.616043 -1026.917362 -9442.088318 84 63 60
-1068.648911 115.116286 -2972.282982 67 53 60
-2879.947662 -761.213446 -7853.658295 69 48 63
-1360.988331 127.752328 -3677.901077 67 53 60
1195.198822 721.557379 2975.078011 100 73 62
2706.494141 307.222843 6461.741638 29 22 22
-2606.145859 -486.448860 -6994.802094 28 21 24
-1421.274376 385.313082 -3654.818344 91 66 57
-2563.628197 -424.184036 -6795.030975 93 74 91
-2687.726593 -809.666634 -7144.001007 90 53 45
-1556.616592 -12.515263 -4070.129395 73 60 69
-2635.954094 -868.485832 -6986.885071 93 51 43
-1646.068192 -94.908357 -4284.988785 196 163 148
-1772.015190 -195.911574 -4626.335907 97 72 77
-2343.988991 -727.641821 -6188.826370 255 222 208
-2127.138138 -930.665970 -5743.990707 180 149 136
-2482.880974 -1085.630894 -6639.105988 180 149 136
-2151.035118 -889.185905 -5766.228104 182 153 135
-2300.067520 -874.709797 -6092.060852 106 91 93
-1674.395752 -250.753856 -4336.431885 191 161 147
-2034.501076 -734.327364 -5305.888367 190 163 145
-1141.597366 112.273633 -2867.888069 125 93 84
-2234.854507 -1020.236683 -5502.363205 165 137 133
-719.347191 661.852741 -1572.449017 102 64 71
-713.203001 632.523394 -1551.818752 116 86 89
-701.482773 482.759428 -1582.291508 201 170 155
-710.791206 487.329149 -1599.484634 201 170 155
-1054.292488 -285.567880 -2616.484642 177 146 141
-707.426643 502.687216 -1575.628948 116 87 100
-1914.920807 -902.237129 -4661.633682 120 96 81
-671.730804 552.102661 -1466.803551 188 153 141
-671.730804 552.102661 -1466.803551 188 153 141
-668.524742 561.824656 -1451.495838 203 173 158
-669.876719 501.173162 -1474.620342 214 175 161
-1059.960365 -509.579849 -2630.168343 83 72 68
-617.543411 530.731153 -1296.414948 58 39 49
-925.183487 -427.271891 -2257.214546 81 60 55
-597.963619 511.013889 -1254.006100 97 77 85
-597.963619 511.013889 -1254.006100 97 77 85
-599.606943 516.815233 -1251.041508 59 41 48
-605.903435 510.867834 -1264.126682 71 57 59
-587.621164 502.553654 -1226.123905 50 34 41
-690.556240 52.759719 -1586.670399 179 145 136
-573.732901 484.170818 -1197.106647 50 34 37
-604.479408 339.096761 -1306.918526 145 113 108
-961.544132 -512.890291 -2306.864357 52 32 27
-606.059122 461.657858 -1260.682106 27 20 21
-710.989904 -9.331553 -1634.626579 26 19 20
-734.044456 -128.963232 -1714.149284 110 87 98
-715.303850 573.639584 -1436.089802 50 34 41
-795.771360 -341.076159 -1903.657532 150 128 123
-747.742987 -198.360443 -1755.409622 120 92 104
-557.639980 464.881659 -1150.803185 51 36 41
-557.639980 464.881659 -1150.803185 51 36 41
-584.055805 495.815563 -1192.177486 115 92 106
-560.953712 468.893385 -1152.715492 100 84 90
-682.934904 -70.956326 -1576.245975 32 24 23
-607.451916 345.583820 -1285.235882 25 19 22
-905.528450 -498.444033 -2152.312279 74 51 52
-564.366245 475.501490 -1153.684330 56 38 46
-545.870876 450.669193 -1121.943092 96 77 86
-719.013786 -179.215348 -1671.336746 107 84 95
-654.529762 82.509154 -1457.245350 55 40 33
-544.224787 449.434614 -1105.931664 93 79 84
-525.226307 429.149818 -1074.874020 56 33 40
-710.968018 -270.939684 -1667.980766 113 89 102
-479.851246 334.281254 -1018.679142 71 50 53
-546.206665 454.587364 -1105.558872 52 36 42
-535.166693 438.561201 -1085.837841 67 52 56
-828.220272 -496.966696 -1957.103729 114 96 86
-632.884026 38.004348 -1403.482151 145 125 120
-564.839554 481.865644 -1120.628071 113 94 102
-694.494200 -266.487670 -1615.151215 92 42 41
-110.860956 171.070862 -350.551414 133 109 113
-110.860956 171.070862 -350.551414 133 109 113
-523.125172 405.412292 -1062.190056 146 115 117
-638.174200 -80.822778 -1443.382931 112 87 79
-556.984472 252.512312 -1177.764797 140 106 103
-616.393042 -8.607785 -1374.027252 69 47 64
-696.260071 -303.343940 -1620.956230 114 52 70
-511.442089 306.956792 -1068.764591 114 89 93
-648.479271 -52.331161 -1446.745110 106 86 92
-810.131931 -513.753653 -1901.028633 48 32 35
-507.885933 308.956957 -1058.111858 72 51 61
-798.722935 -498.862362 -1872.157288 107 90 87
-215.279508 173.406684 -547.045898 41 28 23
-581.897831 125.257361 -1256.694794 74 55 46
-598.846865 -2.142408 -1324.935341 109 93 98
-515.656233 416.775942 -1027.223015 85 71 81
-596.350336 27.211446 -1305.050087 30 15 23
-645.424843 -247.100878 -1485.017776 123 99 102
-566.904306 74.340308 -1227.153015 105 85 89
-733.706379 -391.499877 -1687.367249 101 80 82
-187.295544 160.388744 -488.490677 75 66 61
-507.035923 141.844761 -1087.962627 190 152 142
-513.207912 418.252802 -1008.006382 91 71 88
-533.391905 145.120120 -1131.557751 190 152 142
-502.499485 405.424023 -986.930275 56 38 44
-716.348076 -414.681864 -1645.549011 53 35 30
-513.823748 241.900563 -1059.218407 131 93 91
-718.447447 -448.497534 -1652.969933 47 32 37
-710.637712 -435.213995 -1628.832626 57 38 34
-710.637712 -435.213995 -1628.832626 57 38 34
-519.862986 429.013348 -1001.013279 86 68 80
-692.147732 -408.625126 -1582.820797 67 49 41
-489.755964 387.647080 -956.798935 87 72 81
-499.397993 211.053252 -1031.945610 185 149 140
-554.376364 120.775020 -1160.462856 154 128 123
-511.313152 197.247112 -1057.284927 178 143 131
-424.043655 269.772410 -868.418407 125 105 104
-501.120520 250.096655 -1014.408493 141 111 105
-510.777617 269.807005 -1023.499870 41 28 28
-485.030079 388.423061 -935.955143 103 82 97
-507.444715 167.500520 -1042.903233 77 51 56
-248.679662 271.308398 -536.094809 254 245 239
-503.381395 194.152141 -1020.007229 50 38 38
-454.178953 314.868307 -892.685509 97 77 77
-222.744226 -31.541544 -590.688944 102 77 67
-238.332272 -8.721727 -610.624981 85 71 75
-494.128036 162.568462 -1008.403778 40 34 33
-216.062021 207.871604 -493.538523 133 109 113
-216.062021 207.871604 -493.538523 133 109 113
-450.934505 260.662055 -893.809509 104 84 87
-450.277281 256.368208 -892.952251 117 98 99
-251.084137 267.671704 -531.304407 255 239 222
-502.397633 179.298699 -1006.851101 116 95 86
-483.637762 249.524522 -949.800396 41 28 23
-443.836355 311.687589 -859.470081 145 124 120
-492.361355 109.356594 -1007.880974 99 76 83
-471.962595 236.325669 -930.995655 175 143 130
-443.627596 307.483029 -857.845020 107 85 92
-226.883578 -96.915460 -605.021000 93 75 79
-467.778683 184.807372 -934.930706 110 89 92
-202.419305 160.508239 -476.577950 121 99 98
-229.022408 -104.916656 -609.030819 114 96 93
-463.009024 227.545691 -909.140873 130 97 93
-512.491560 125.865388 -1023.816299 94 77 90
-475.110340 243.334174 -921.507263 82 72 65
-481.275272 154.701543 -959.545040 90 74 82
-481.275272 154.701543 -959.545040 90 74 82
-225.435925 -90.796202 -593.084192 26 20 22
-490.804386 129.773855 -981.395817 30 20 25
-459.998798 226.956534 -896.434212 171 141 129
-488.938189 132.925713 -972.678471 89 74 90
-474.148989 134.925079 -943.841171 52 36 48
-538.657618 -322.853017 -1193.505001 168 137 122
-465.805912 235.525513 -894.493008 75 66 61
-232.064366 -94.841105 -597.230959 104 83 81
-238.462353 -4.976814 -580.198622 108 93 90
-424.875021 316.509557 -797.443295 53 36 40
-438.116741 332.295990 -812.653065 51 31 39
-438.116741 332.295990 -812.653065 51 31 39
-228.529143 -89.539135 -586.577177 94 76 77
-229.407954 -93.893403 -587.479782 106 87 88
-444.442034 168.064702 -868.434048 110 87 89
204.902864 40.253949 35.925925 82 70 70
105.537200 -104.917789 374.075603 35 24 17
43.791309 -225.661492 651.969194 61 39 35
42.443976 -227.679873 657.328796 57 33 34
35.758188 -219.533539 676.512146 69 63 71
16.383196 -161.544108 732.170105 125 106 109
37.058207 -221.740246 682.754755 20 14 16
19.332819 -165.715659 726.484346 119 104 110
37.318948 -218.319440 681.652784 84 74 82
33.063897 -204.022264 697.953939 69 56 62
54.242867 -251.838493 648.940277 51 34 47
10.567918 -269.155836 803.055477 69 63 71
53.335065 -226.501226 648.683834 80 59 58
33.689094 -196.303308 712.774897 16 16 17
52.986318 -219.630837 655.204105 120 103 117
58.007085 -259.522533 651.428080 99 84 98
57.914424 -254.032874 653.711033 110 97 113
37.184203 -200.329256 711.740160 141 126 134
37.930396 -207.532144 712.795067 123 109 119
56.664371 -215.916181 655.548668 115 98 111
202.633691 39.861482 35.736048 43 28 26
-25.170600 -339.623046 982.850838 69 63 71
32.587853 -181.720757 736.704874 122 104 111
32.587853 -181.720757 736.704874 122 104 111
47.115204 -228.137636 706.866407 20 16 16
48.881292 -229.338193 711.403656 71 65 65
43.481398 -200.308681 740.448999 88 75 88
201.877952 39.355388 36.736223 34 25 24
52.262908 -232.555532 721.679068 22 19 19
40.440056 -192.832482 756.710672 59 45 50
40.440056 -192.832482 756.710672 59 45 50
54.371369 -233.365583 726.027346 71 67 68
55.532146 -234.295225 729.375839 78 71 69
33.274025 -174.530435 798.834229 52 38 41
63.657182 -238.795495 714.749527 26 14 12
57.707834 -236.698246 736.362791 23 19 18
51.219380 -207.059336 756.964016 65 49 53
48.255399 -201.963520 769.257307 50 40 41
36.134025 -176.621735 813.233471 102 88 104
60.197574 -236.140919 737.544298 74 67 72
66.893226 -239.841652 717.916059 138 112 107
38.139242 -172.063017 813.726330 113 96 122
61.694086 -237.253857 741.743469 79 73 74
68.897563 -241.893744 716.370249 62 43 45
70.710677 -243.241358 713.927603 53 36 48
42.860937 -178.425562 807.518959 112 90 107
77.592254 -258.720446 694.020224 63 41 44
63.195086 -240.774679 751.581430 27 22 23
48.410627 -192.533290 797.721338 40 25 31
74.989653 -247.182918 715.903902 148 125 135
74.989653 -247.182918 715.903902 148 125 135
67.228764 -242.019963 758.252430 96 83 85
84.014690 -276.202869 709.485483 51 32 36
150.916708 -75.521845 336.527777 118 96 101
69.528484 -244.396043 764.774513 28 23 25
82.636768 -234.350467 712.693596 37 23 16
142.625260 -122.654259 409.863329 47 27 20
44.947323 -158.681238 856.246281 18 16 17
63.486749 -221.512032 801.633644 88 71 78
41.328302 -155.624950 877.332687 118 94 104
13.084230 158.176279 843.565559 156 128 114
67.790556 -232.870293 795.596838 74 60 62
43.935984 -159.531200 879.418850 143 127 130
76.174361 -238.088226 778.218937 178 146 142
150.606275 -89.392281 374.555588 42 29 35
59.330988 -177.477050 871.970654 179 145 137
82.293993 -252.887487 796.623182 24 18 20
71.401197 -212.221932 838.694572 109 89 107
72.003585 -211.881423 846.619415 108 87 103
87.500727 -235.577631 797.672796 198 164 151
87.899917 -251.678586 806.075668 79 70 81
88.860297 -257.540250 813.685799 17 15 15
104.116678 -268.631649 754.288435 42 24 17
97.541571 -262.997866 794.392824 118 94 108
95.625371 -262.238121 831.500053 22 17 18
98.846018 -261.905932 832.867146 68 62 68
112.373662 -284.492087 772.242260 137 115 130
105.581927 -264.973307 804.760170 141 120 125
105.472028 -265.867829 806.984997 141 120 125
109.146631 -261.894035 786.955929 76 60 73
114.748812 -299.080324 779.313469 61 45 52
117.169011 -300.155616 777.372980 67 50 63
116.638315 -294.986486 780.347633 72 57 64
59.334368 -141.207993 1077.361870 87 61 71
32.283413 162.465107 1004.945850 117 95 93
788.479519 848.038673 -4723.885727 110 88 105
28.861877 141.564691 1082.450390 76 92 86
31.231827 -81.506836 1285.917091 116 96 93
28.099623 -84.042203 1312.998676 116 96 93
56.207585 -125.562298 1162.611294 88 65 71
47.028410 -97.460485 1249.514008 118 100 106
117.441797 -273.123455 884.661293 118 96 101
27.372557 -45.410430 1399.701595 92 77 84
121.695185 -277.398944 890.008545 78 70 70
121.695185 -277.398944 890.008545 78 70 70
36.493400 -14.738995 1343.472672 131 110 113
123.199499 -289.213157 905.933762 85 74 79
28.101796 -15.962301 1431.072235 132 111 111
24.084301 13.376032 1454.315853 128 107 107
24.084301 13.376032 1454.315853 128 107 107
126.889169 -282.640409 906.071949 23 18 19
53.478158 -125.656414 1406.387043 118 99 96
139.156544 -301.733613 890.034008 59 42 54
149.103808 -334.131551 843.611622 91 73 79
93.743789 -162.289703 1174.784184 192 160 148
140.139258 -294.765019 903.964424 147 126 128
153.161228 -344.888353 892.276096 130 105 119
40.683055 10.012346 1625.725174 167 133 128
53.579569 -59.756285 1674.907303 173 132 122
49.467403 -63.187957 1730.354118 173 132 122
56.808007 110.972631 1435.844421 176 141 130
167.612898 -369.019103 903.151798 113 88 106
159.750199 -303.353000 944.722366 187 154 145
32.117742 -94.454640 2219.777679 168 135 127
169.625211 -339.359307 918.455791 196 163 155
81.726897 168.184376 1222.606468 121 107 102
176.743925 -363.844514 905.935574 201 166 160
176.743925 -363.844514 905.935574 201 166 160
173.450005 -339.751840 937.875748 194 163 159
173.450005 -339.751840 937.875748 194 163 159
168.759978 -310.969400 972.785759 189 155 149
178.556621 -354.821157 926.405334 119 96 111
178.556621 -354.821157 926.405334 119 96 111
171.869040 -320.304680 972.476673 108 88 107
175.721633 -333.194256 960.465050 103 87 108
83.854681 142.468965 1424.789524 64 34 25
183.570576 -365.104961 932.206059 128 102 119
183.570576 -365.104961 932.206059 128 102 119
178.632653 -335.700941 949.090290 193 164 158
178.708160 -341.106629 962.815189 193 164 158
85.040963 140.924597 1519.328117 152 104 100
189.365661 -368.110633 943.307400 197 165 154
183.013940 -335.106993 981.235123 192 160 155
97.366452 395.803881 2467.862129 70 51 44
181.411719 -189.582765 6310.917282 139 108 96
231.624365 -329.689693 1198.814774 169 133 122
252.053499 -347.646356 1231.286430 164 127 123
267.256546 -448.556423 1096.136665 152 117 127
274.393487 -286.156106 2385.538673 162 126 116
274.393487 -286.156106 2385.538673 162 126 116
341.678953 -432.382917 4466.106796 98 82 81
277.683687 -292.285633 2037.086868 176 143 131
284.229326 -457.655382 1139.743519 149 114 114
28.486574 31.844175 -6110.300446 46 33 34
340.178800 -356.075454 3110.079193 104 81 87
-0.423647 -163.745439 -6663.061523 181 146 141
63.580024 -35.973370 -3564.709473 107 79 91
239.060259 193.393171 1977.271271 39 31 32
239.060259 193.393171 1977.271271 39 31 32
211.113238 143.522871 1046.364498 128 105 117
98.047876 32.916451 -2224.033356 110 89 78
309.503007 -471.299124 1206.083012 217 181 171
77.353835 54.781890 -2469.214439 133 105 96
88.321197 25.362307 -1983.687973 50 37 37
323.183465 -485.952187 1229.513931 222 183 170
335.779071 -342.268777 1790.412140 142 106 96
77.952296 68.812644 -1909.952736 80 60 58
71.953475 -70.948082 -2400.441742 89 63 62
51.057553 -78.202516 -2787.032509 137 114 116
94.349217 24.713571 -1703.225136 115 94 99
730.744457 -677.532101 7945.983887 124 107 109
89.231217 -20.210448 -1855.968094 76 53 62
91.037512 42.027369 -1664.012146 69 51 49
-74.458301 202.405548 -4138.750839 135 116 128
-56.151408 190.443337 -3841.964722 135 116 128
-30.347422 159.713066 -3450.861740 81 60 71
53.720379 55.015552 -2238.657379 138 118 121
506.216431 -447.765923 4250.928497 76 55 65
35.315001 -100.604475 -2871.478271 141 123 119
342.054129 -470.574427 1327.741051 166 125 115
438.196087 -380.636072 3052.572060 76 55 65
438.196087 -380.636072 3052.572060 76 55 65
356.447053 -517.733002 1298.704147 164 128 128
202.453899 147.945166 584.220600 79 57 52
436.654329 -387.931490 2670.978546 87 64 70
393.920827 -377.286553 2071.193886 67 53 51
409.196711 -384.931183 2064.348602 69 50 50
448.396730 -382.115436 2527.743149 57 42 49
448.396730 -382.115436 2527.743149 57 42 49
455.905581 -255.066705 2690.962982 145 117 122
408.584642 -394.435692 1845.862579 78 58 51
467.416954 -413.882780 2419.674683 126 101 114
218.714976 -15.454634 348.102260 131 106 120
388.019061 -545.533323 1330.076694 208 174 165
218.413448 77.115595 442.743540 66 49 63
463.987684 -399.120712 2378.685951 126 101 118
221.193171 88.680208 479.631948 87 71 86
223.421121 108.553529 538.737154 161 126 120
376.966763 3.967621 1881.580353 146 126 120
741.652489 -360.280514 5099.712753 123 97 111
301.292515 -145.927119 986.778641 80 59 67
509.011078 -391.960764 2524.675369 72 56 62
807.001591 -137.818944 5424.603653 169 157 154
620.550156 -358.104825 3355.335236 89 66 76
320.522809 59.691954 1224.219513 103 84 104
509.855270 -441.293097 2296.040344 130 105 119
570.995378 -274.225140 2921.272087 188 161 157
387.522578 -35.845858 1589.220428 119 96 101
774.031925 -38.192451 4717.154312 154 132 127
196.322775 39.181322 112.480521 128 109 118
623.924112 -337.334180 3142.938042 140 114 127
995.045757 8.844184 6492.937469 155 134 132
192.493784 38.520208 80.011386 42 20 21
194.847679 38.643879 98.521680 47 27 25
189.431763 37.565428 54.408032 58 37 31
718.599510 -255.751491 3808.344650 146 124 127
718.599510 -255.751491 3808.344650 146 124 127
548.053503 -459.823227 2358.460045 127 102 118
221.432328 79.102981 346.357226 39 25 26
553.993034 -473.720551 2370.716667 126 105 119
678.282976 -466.527700 3223.577499 137 116 123
1287.250328 -459.638119 7627.079010 95 79 81
1401.386929 -523.132515 8347.674561 68 46 50
580.955982 -493.083191 2471.853638 36 25 29
1260.108185 -508.430386 7282.195282 146 123 127
221.435308 114.551938 414.407587 91 61 57
217.591429 65.373367 273.227882 65 48 36
-1169.982624 622.598171 -8008.734894 134 112 114
-164.891326 105.858266 -2136.044502 65 48 35
576.694012 -645.651007 1903.097725 66 43 37
710.527229 -592.315340 2784.056091 37 24 27
715.645361 -586.128044 2816.060829 100 79 82
604.762793 -690.526628 1970.270348 194 161 151
683.035231 -605.696869 2518.467522 135 114 113
618.045473 -682.738733 2024.320030 108 81 83
641.762352 -783.438158 1981.006813 195 161 153
704.368734 -619.119358 2566.606140 141 120 123
717.225981 -622.804689 2576.977158 73 49 41
682.309532 -696.169090 2283.949852 45 27 27
798.024225 -652.629423 3005.461884 32 22 24
816.671753 -658.640957 3097.003746 89 67 76
666.938543 -839.840603 1991.452599 169 135 131
818.618107 -666.724920 3020.904922 71 48 57
691.565800 -811.720467 2136.632538 198 163 159
706.181955 -814.028358 2208.384895 92 63 48
714.285421 -725.694704 2321.706009 172 148 143
758.227348 -707.280159 2584.471893 87 57 55
694.812298 -801.284885 2140.689659 198 164 157
716.790247 -757.977390 2301.208496 151 132 134
780.109835 -721.306849 2686.749077 102 73 69
780.109835 -721.306849 2686.749077 102 73 69
749.232101 -699.762917 2530.138588 185 161 154
769.821787 -695.100021 2640.533638 116 86 78
713.838339 -807.277203 2215.246582 129 105 111
219.760108 40.417612 211.835122 67 44 32
122.955120 28.402686 -313.379478 255 192 174
178.732169 36.112279 -4.482903 248 185 167
700.397301 -789.599228 2119.733047 120 86 69
937.320423 -742.824030 3441.860199 93 70 82
840.046978 -733.871651 2913.710403 154 126 114
736.028671 -889.737415 2178.268051 150 112 114
755.421448 -837.577057 2307.127571 75 53 46
771.508551 -858.791828 2343.942261 74 54 44
771.508551 -858.791828 2343.942261 74 54 44
905.907345 -762.030792 3103.323936 104 76 65
783.495808 -898.795509 2334.143829 192 160 154
779.707384 -822.400761 2372.423172 165 144 143
796.158743 -887.261772 2398.656464 62 43 35
240.493107 113.674283 390.910220 130 93 83
896.703529 -919.944191 2762.657738 85 70 73
-86.289072 100.571346 -1215.271759 44 35 36
-64.976591 90.892029 -1118.116951 101 80 83
856.386757 -950.930119 2534.212112 48 32 27
249.553013 111.325192 413.903332 101 73 67
-77.662140 96.896875 -1146.148682 97 80 83
-181.534994 164.096880 -1574.729252 76 43 30
1139.225864 -881.515980 3867.366409 101 76 88
1006.235027 -1001.509953 3088.977623 83 63 58
1006.235027 -1001.509953 3088.977623 83 63 58
939.577675 -1031.782150 2728.727150 40 25 19
1381.375599 -1040.881538 4775.392914 97 74 81
1353.590584 -1030.943203 4633.391571 38 26 29
1353.590584 -1030.943203 4633.391571 38 26 29
996.877575 -1004.469109 2993.199348 138 118 115
1037.333107 -1112.729263 3073.087692 130 105 100
1077.222538 -968.170643 3381.806564 86 57 58
1077.222538 -968.170643 3381.806564 86 57 58
1040.262604 -1019.224358 3137.423134 165 135 130
978.268814 -1065.182304 2816.064644 35 23 19
1077.879238 -999.668121 3321.755981 110 78 71
250.620341 114.712846 401.899052 88 63 56
1029.632092 -1019.142437 3074.055290 106 87 82
1094.281483 -1002.446938 3383.356857 122 88 79
1057.757854 -1082.908154 3130.726624 174 149 144
1088.023472 -1094.145679 3252.607346 176 156 152
1079.012489 -1098.784256 3149.427223 157 132 126
1425.385857 -1273.073578 4529.653549 189 162 154
-151.131189 140.220261 -1319.250488 148 106 83
258.918786 124.144864 430.686617 131 95 87
1206.168938 -1060.200691 3703.149796 136 110 106
248.814464 116.064513 384.452701 76 55 49
1123.897171 -1282.395363 3164.627075 193 155 150
1797.490120 -1312.820816 6053.559494 92 72 86
1094.263268 -1201.963043 3061.533737 210 173 167
1772.337341 -1309.654999 5915.716171 40 27 29
1154.945183 -1281.995201 3260.469437 210 173 167
1163.261223 -1265.866566 3296.223068 103 76 66
1163.544750 -1256.493092 3249.957275 202 172 159
1216.049290 -1271.729660 3413.065720 37 25 24
1247.131729 -1319.773006 3476.447678 96 71 64
1565.346813 -1430.413914 4675.246429 202 174 168
1295.581436 -1409.347248 3545.811081 167 127 127
-1129.779434 722.639513 -4746.871567 127 100 97
1297.271252 -1360.472775 3570.752335 195 162 156
1602.218056 -1534.222794 4640.033340 73 52 51
1390.326405 -1449.345875 3859.420013 98 71 63
1865.181160 -1420.488644 5779.577255 103 72 63
1942.583275 -1561.208057 5910.614014 179 155 148
1396.444035 -1169.595337 3985.976410 117 87 77
2215.332222 -1722.553635 6831.964111 113 90 82
2148.489761 -1696.627045 6577.255249 181 152 143
1991.940117 -1585.333061 5966.643906 151 126 119
1485.361481 -1632.643509 3962.485886 209 174 167
2185.933495 -1775.858879 6588.372803 101 74 70
-77.275312 75.723135 -930.316830 40 26 28
1870.033836 -1729.532623 5297.916412 32 23 20
2947.976303 -2253.495598 9015.412140 155 131 118
-359.335566 -274.120259 -2164.275169 51 35 24
3009.518433 -2241.723061 9174.103546 172 144 135
3009.518433 -2241.723061 9174.103546 172 144 135
2092.535210 -1895.284081 5948.211670 95 68 65
2791.963768 -2221.639061 8314.547729 103 71 70
2634.371948 -2285.881424 7645.393372 46 30 28
2079.664230 -1873.460388 5862.431717 135 115 108
2033.647728 -1973.846245 5599.381638 168 137 131
1951.644897 -1884.674835 5350.929642 168 137 131
1934.204865 -2120.060158 4923.912811 121 96 83
-524.568033 291.096354 -2282.755089 122 93 92
-1051.336002 595.832205 -3925.117111 83 65 71
-1051.336002 595.832205 -3925.117111 83 65 71
3018.236732 -2619.841385 8265.103149 88 62 54
-444.016218 228.921986 -1974.250412 114 87 90
-444.016218 228.921986 -1974.250412 114 87 90
-213.917971 -79.297048 -1320.947075 73 53 57
-314.851451 -144.291449 -1668.320847 58 41 49
-606.014681 -289.419651 -2609.701347 138 110 103
-362.758493 76.323825 -1637.891960 23 20 22
332.109332 158.796608 567.900944 86 60 53
-439.623165 69.436669 -1819.924545 108 83 86
-1672.300339 837.986946 -5087.347412 48 35 38
-341.025376 27.330300 -1526.873970 143 115 105
-2283.884239 1210.338306 -6635.557556 118 101 105
-1942.544937 969.311905 -5745.281982 109 85 94
-1674.933624 804.001331 -5004.494858 91 68 73
-2410.053062 1431.665802 -6807.309723 100 72 62
-1501.639557 -629.193497 -5195.760345 129 103 97
-131.113100 -5.415386 -889.212894 68 46 49
-3730.371475 2804.113197 -9768.492126 170 135 131
-621.806669 -102.366805 -2322.543526 71 52 57
-886.134052 453.198576 -2837.624168 91 68 73
-1043.681335 -207.756758 -3561.627579 71 52 57
-1043.681335 -207.756758 -3561.627579 71 52 57
-1073.734093 427.522469 -3329.838943 127 105 104
-1464.797878 647.938967 -4291.984558 38 24 28
-1464.797878 647.938967 -4291.984558 38 24 28
-590.369797 23.098923 -2116.292953 152 120 107
-945.216846 309.247661 -2935.872650 134 110 109
-1275.705051 512.494421 -3726.703644 38 25 28
-3356.364441 -1196.014786 -10173.587036 141 113 102
-608.726645 28.524789 -2120.078278 28 17 19
-1428.045845 635.134268 -4057.460403 127 98 97
-881.610107 253.762197 -2746.715546 106 82 91
-759.374094 65.193915 -2501.455116 43 30 32
-1172.443104 418.332195 -3411.632538 38 26 28
-1611.202049 959.392643 -4296.323776 152 117 111
-3128.555298 -1047.166920 -9287.899017 47 31 29
-886.614037 80.674338 -2781.505966 110 87 91
-1437.879372 713.748264 -3911.790466 183 148 137
-1072.438622 335.562396 -3124.163055 36 23 25
-1121.469593 319.894767 -3246.097946 109 85 93
-512.844992 187.414706 -1714.223671 36 23 25
-1024.234009 272.653842 -2982.839394 37 25 27
-1275.487423 569.669962 -3473.920059 83 61 51
-1106.756210 265.546036 -3184.120750 107 85 99
-1012.367153 222.146463 -2946.518517 36 26 32
-1015.747643 173.901999 -2958.706284 38 29 34
-3080.610275 2929.423714 -6896.298218 112 101 87
-1029.775143 210.312629 -2974.577713 107 85 97
1512.121487 637.965822 3689.875031 47 37 46
-2380.399132 2188.085175 -5408.666611 206 171 160
-3601.316833 -693.806553 -9762.430573 111 92 103
346.648812 49.371248 437.628508 38 28 30
-2552.829552 2403.421783 -5663.691330 106 87 71
1187.297630 529.019022 2751.428032 66 52 50
551.563549 269.503713 1055.276394 101 73 67
1060.227299 452.731466 2379.641724 125 104 107
-2059.477615 1977.705956 -4531.212234 175 143 132
-1777.697754 -257.822394 -4852.986145 99 82 98
-1000.302887 318.353915 -2701.806450 86 63 52
-879.599571 193.900132 -2447.136497 88 69 65
-967.080975 311.558795 -2595.441437 189 158 143
-971.074677 267.087507 -2619.717216 90 67 57
-1133.779335 1.451893 -3116.628456 197 165 150
-2243.503380 -385.752892 -5924.582291 41 32 34
-906.533051 234.627366 -2442.988396 163 134 116
-914.302731 285.231209 -2432.379150 189 157 144
884.721756 443.504715 1865.161514 155 117 109
-994.785404 190.836179 -2653.506279 78 58 51
-914.567471 210.988975 -2451.893806 170 137 124
-1524.179077 -142.293787 -4033.555984 99 76 80
-1293.171120 -48.316222 -3451.306534 198 164 150
-1756.506920 1596.764755 -3777.082825 122 98 78
-2822.371864 -585.177660 -7196.546936 192 159 146
579.754591 287.881255 1050.763512 102 74 67
-1126.393890 855.756569 -2513.321114 173 134 123
-1297.925186 1177.869701 -2733.779716 118 84 66
-1261.467171 1146.006966 -2630.339241 188 153 140
-1019.414997 795.143938 -2241.292191 182 148 141
-1151.255226 1025.932884 -2380.277634 110 81 65
-1016.616631 858.108616 -2131.631851 205 171 158
-1090.214539 969.878864 -2236.771393 162 133 126
-998.958111 824.978638 -2084.933853 211 176 167
-1046.098804 921.332359 -2131.543159 104 75 60
-1004.755497 889.890671 -2024.508667 173 140 126
-918.196583 690.265799 -1931.974792 129 103 117
-978.299713 852.807426 -1973.402023 107 75 60
-706.021690 263.546419 -1661.031532 163 132 127
-706.021690 263.546419 -1661.031532 163 132 127
-1018.946934 858.961868 -2047.801590 114 90 71
-2637.718391 -1118.368340 -6090.893555 184 150 142
-871.109104 639.923239 -1834.181595 130 104 118
-873.020172 664.759254 -1817.611313 191 160 148
-692.714071 236.561060 -1632.812500 142 112 106
-832.999325 576.652670 -1772.996712 205 171 159
-832.999325 576.652670 -1772.996712 205 171 159
-2537.581253 -1092.716217 -5822.253418 98 76 73
-839.418983 586.153698 -1772.340202 218 180 166
-715.704107 246.463728 -1646.692085 157 129 120
-886.960506 753.213978 -1750.730515 73 47 40
-650.601053 173.328960 -1519.548321 142 108 113
-708.106375 401.741457 -1529.225063 113 87 96
-708.106375 401.741457 -1529.225063 113 87 96
-1352.898693 -478.261566 -3105.186844 117 94 108
-716.324377 538.555098 -1476.557636 139 114 124
-740.079308 551.373434 -1515.037251 139 114 124
-816.578960 643.161106 -1624.321747 57 39 50
-746.912909 577.347326 -1492.990398 66 43 49
-2620.501328 -1262.142754 -5686.119843 55 37 29
-717.477846 -68.037242 -1675.004578 109 79 86
-835.102463 671.162939 -1609.261131 116 95 97
-793.792534 624.630547 -1548.788452 110 85 101
-655.579472 10.751548 -1526.972675 67 51 48
-704.370737 395.075560 -1469.850636 118 100 93
-620.136929 373.858905 -1317.969990 50 31 27
-767.695522 598.307896 -1500.258636 66 47 54
-769.884968 -123.848617 -1780.550003 115 90 104
-721.009588 550.879908 -1426.609421 61 38 45
-745.798302 576.641035 -1457.929802 55 37 43
-662.920427 -22.926089 -1536.281300 75 55 50
-832.921505 -197.573066 -1907.288170 191 159 148
-540.422964 342.979312 -1163.263702 77 47 37
-584.541225 116.851890 -1333.521461 194 162 151
-691.604280 3.318063 -1572.316647 22 17 19
-570.752382 336.508632 -1219.692612 110 88 97
-570.752382 336.508632 -1219.692612 110 88 97
-722.472715 550.657129 -1412.138462 54 37 48
-587.675667 100.215220 -1332.473183 163 127 116
-627.616453 85.610747 -1409.888935 54 40 32
-696.465874 525.923586 -1364.098835 62 39 45
-720.968628 551.461220 -1395.600414 52 35 40
-634.703588 330.636954 -1324.210835 170 139 128
-1429.735851 -630.656576 -3108.388710 99 91 91
-998.554230 -328.356218 -2217.330933 104 85 104
-615.846825 4.698227 -1407.992649 22 18 18
-1052.021503 -403.332806 -2332.386208 92 49 40
-1052.021503 -403.332806 -2332.386208 92 49 40
-535.728455 322.672319 -1131.344700 95 76 84
-535.728455 322.672319 -1131.344700 95 76 84
-699.194908 529.076242 -1347.430801 93 80 85
-52.893674 137.602150 -317.268443 25 18 21
-650.531721 -7.696861 -1455.546284 140 115 107
-548.676872 132.155561 -1221.833229 192 159 145
-631.633663 334.310246 -1286.441040 96 77 73
-584.333563 33.869752 -1310.882664 87 68 84
-669.068289 -106.469631 -1505.234432 128 107 103
-679.425335 508.079815 -1295.696545 89 76 85
-652.260351 -84.883440 -1466.940784 109 86 81
-618.351126 -11.017460 -1380.209827 113 91 94
-651.472425 480.618954 -1249.757290 62 37 45
-629.807138 333.413625 -1269.086170 76 67 67
-629.807138 333.413625 -1269.086170 76 67 67
-607.422066 409.311152 -1197.993755 119 96 103
-366.420317 322.107410 -791.123581 91 76 84
-186.944020 222.192574 -506.913710 88 74 84
-557.891798 144.189465 -1208.050060 201 165 155
-593.260288 97.574675 -1286.390495 137 111 117
-685.031176 516.752529 -1288.186264 92 72 87
-580.362368 13.015723 -1291.029072 111 94 99
-574.548960 357.676125 -1150.000000 58 34 41
-563.654470 319.372487 -1142.351627 107 86 97
-382.356739 370.236421 -788.847589 251 205 169
-612.659407 -9.596758 -1348.069000 132 106 101
-654.050589 484.478807 -1236.535835 88 75 87
-565.352631 326.853967 -1139.441013 121 97 110
-664.514542 494.804430 -1247.347450 54 39 43
-574.504375 -0.953064 -1274.595642 33 26 27
-587.515402 43.900016 -1280.624008 18 12 11
-1610.550117 -889.630699 -3357.175446 105 88 83
-558.839035 317.392850 -1124.649715 142 120 123
-650.573301 480.206108 -1221.475792 40 27 32
-329.169607 326.413631 -700.277805 125 94 72
-552.543640 134.065235 -1176.866245 86 69 62
-154.549360 -25.649601 -546.986961 61 38 24
-1378.836536 -723.465967 -2877.475166 61 42 40
-638.146019 466.901875 -1193.723392 93 80 86
-334.919739 332.181716 -703.052282 255 234 215
-156.971121 -31.475365 -549.217606 83 43 35
-613.176346 442.964792 -1154.693317 58 35 42
-622.204590 14.443207 -1327.822781 27 22 21
-158.917236 -31.771502 -546.608973 91 41 39
-164.701998 -55.869770 -561.421537 125 129 127
-164.701998 -55.869770 -561.421537 125 129 127
-621.371889 453.325605 -1145.722961 54 38 44
-170.071781 -72.832704 -574.643564 74 41 27
-162.358308 -37.516624 -549.750185 73 30 34
-602.949190 430.903864 -1117.891312 91 76 84
-435.631418 243.070984 -902.642250 91 81 80
-330.220509 319.841647 -681.011629 255 240 228
-518.354273 105.801928 -1087.970257 124 99 107
-499.319649 309.668517 -977.400303 99 77 81
-566.649199 286.547065 -1098.263550 34 24 26
-513.457918 150.884330 -1056.612587 146 111 100
-513.457918 150.884330 -1056.612587 146 111 100
-479.842186 272.550917 -954.517269 114 92 93
-521.354628 330.335379 -1000.314045 32 23 24
-573.630667 401.339102 -1059.797859 140 112 114
-180.455554 -95.003468 -586.526155 102 82 65
-388.775539 353.837752 -759.575605 230 165 153
-388.775539 353.837752 -759.575605 230 165 153
-567.733908 283.496118 -1092.420292 91 81 80
-489.040327 297.982335 -954.142475 72 54 64
-558.483124 364.155483 -1042.718220 137 118 109
-553.822613 275.664425 -1061.191463 32 22 20
-543.570852 268.857455 -1046.538830 64 44 47
-566.240978 380.372930 -1040.676403 137 112 117
-566.240978 380.372930 -1040.676403 137 112 117
-518.172216 319.472551 -982.708073 119 95 99
-571.797228 399.606276 -1039.198303 85 73 80
-621.702433 453.921175 -1101.511860 95 77 82
-514.234924 130.153358 -1042.426872 25 18 20
-523.102283 131.505811 -1055.762768 25 18 20
-207.296157 193.270493 -506.261778 97 79 92
-503.098154 116.568983 -1021.612263 113 91 95
-502.101326 294.552302 -954.676342 51 28 31
-507.318830 121.048069 -1025.192738 35 26 28
-526.704502 178.567243 -1034.874916 62 42 50
-531.675625 226.847219 -1025.294971 79 61 58
-302.573895 291.703391 -613.683605 228 169 158
-510.754013 160.966074 -1004.987431 93 76 85
-398.573017 344.963336 -750.613356 255 237 228
-506.512976 146.480083 -1000.463772 90 75 89
-501.402950 165.592873 -982.676506 47 31 38
-662.467003 -335.537696 -1396.469593 137 109 103
-528.509188 256.198359 -992.236996 31 20 20
-426.127243 357.752419 -784.576797 255 237 228
-514.705706 126.996553 -1011.374474 97 78 94
-460.282850 376.799417 -828.829002 233 170 154
-526.782990 253.015089 -983.245850 85 73 68
-456.491947 371.882224 -822.051334 255 237 228
-492.123175 174.087489 -950.026035 91 71 84
-515.241385 223.603249 -967.969322 83 69 66
-551.307011 380.081439 -967.707634 48 33 38
-494.004822 122.996986 -966.185379 100 82 95
-194.884121 -102.849436 -573.936224 35 28 29
-499.582243 200.815415 -941.575718 124 101 100
-509.484625 212.172842 -952.749729 35 27 24
-2751.541519 1138.426781 -4150.838852 99 77 81
-482.341862 181.728280 -918.877602 114 92 93
-509.917259 217.232728 -947.908878 85 68 68
