ply
            format ascii 1.0
            element vertex 3325
            property float x
            property float y
            property float z
            property uchar blue
            property uchar green
            property uchar red
            end_header
293.746621 -185.480006 1056.671104 105 77 91
295.759450 -173.818804 1058.257121 136 110 127
302.300483 -196.518848 1067.059704 98 69 80
306.081837 -215.138294 1066.205585 77 57 52
304.671175 206.958376 887.449882 101 72 66
286.328509 -60.531296 1189.235896 111 81 84
312.180850 -221.150743 1074.146651 67 48 48
290.667087 -49.508003 1173.502950 52 38 40
300.089842 -138.569688 1171.694219 73 56 64
293.946426 -50.198311 1176.466629 103 82 80
314.656113 -195.014969 1085.856938 157 136 137
315.003958 -189.725100 1086.423999 157 135 143
318.998519 -226.649298 1081.786851 68 49 49
318.998519 -226.649298 1081.786851 68 49 49
296.615521 -48.630771 1179.346379 47 32 35
323.352257 -271.954026 1099.287429 168 129 117
303.450602 -100.729945 1189.599187 104 70 69
321.677083 -199.645656 1090.110775 167 146 143
322.382468 -200.810328 1089.843858 145 116 124
312.565989 191.828164 959.120819 103 70 61
326.203177 -231.622357 1089.882508 64 45 40
323.498747 -195.820803 1093.688092 152 130 134
250.198107 380.888765 1557.583790 118 80 79
330.085196 -209.364763 1101.923964 132 107 116
331.467595 -205.965734 1110.385916 66 48 59
322.570645 202.941982 941.003166 105 74 66
319.689842 192.959331 995.335129 102 72 68
337.670963 -238.404671 1108.688959 66 57 59
340.601268 -214.934248 1112.567145 134 108 124
344.348204 -244.366044 1108.097670 143 118 125
343.841766 -226.237382 1114.749110 85 57 64
326.619161 -93.573028 1218.304048 45 31 29
324.690305 -45.614435 1208.634702 114 91 94
326.724686 -84.052636 1216.230207 44 28 30
343.927235 -213.969384 1119.922153 101 76 87
343.927235 -213.969384 1119.922153 101 76 87
332.719256 197.415181 981.152607 97 68 59
351.288980 -252.625100 1125.327224 119 88 72
354.234718 -304.462334 1140.095472 114 82 69
331.989963 -39.326646 1217.541210 116 89 93
357.490534 -281.134969 1137.868234 52 32 27
355.259618 -229.973140 1128.052007 82 55 67
337.529556 -45.912231 1218.139854 73 49 56
359.443463 -300.519220 1143.423274 198 170 158
357.597427 -257.820457 1133.581940 175 143 131
357.027621 -209.026304 1143.538281 125 101 118
342.368508 -44.196811 1222.920554 65 43 47
362.210524 -258.625693 1138.422345 147 121 114
366.049810 -300.915859 1148.117460 131 99 98
351.888694 -135.223657 1223.667924 46 37 39
348.743736 207.586836 965.140369 111 75 68
349.049301 211.892508 964.422922 95 64 60
367.519118 -231.866448 1141.137225 89 61 65
367.401817 -228.882532 1140.818695 134 103 108
369.585451 -248.185106 1135.376622 170 142 131
369.118307 -216.058337 1149.779370 38 30 33
357.262669 -79.050249 1248.313696 44 30 31
360.854399 216.362588 948.076955 101 74 65
383.736111 -270.627664 1157.468717 138 110 97
380.422586 -215.220949 1162.384826 38 31 34
362.841143 206.691383 980.051470 119 84 73
374.419089 -145.054941 1218.182929 141 112 108
387.239864 -307.420826 1166.185801 123 90 78
387.239864 -307.420826 1166.185801 123 90 78
387.864454 -317.038342 1168.838916 146 115 99
387.744788 -295.447138 1162.818350 182 158 141
378.924196 -96.478625 1166.092139 49 37 39
370.893754 -12.682307 1253.344383 110 84 84
387.645761 -217.767150 1169.561397 107 80 95
386.428400 -179.711569 1198.081742 28 22 23
371.017222 208.894304 987.987276 93 65 57
371.553992 208.544804 986.419780 93 65 57
368.880984 106.503515 1235.332947 103 79 80
396.408556 -271.027739 1173.238240 165 139 132
396.408556 -271.027739 1173.238240 165 139 132
391.524949 -189.919053 1187.856892 115 90 95
374.774214 204.777987 989.394437 171 131 119
398.944447 -253.448590 1172.885852 160 130 124
399.336119 -229.475391 1171.877335 160 130 129
404.142724 -309.588095 1196.059012 216 185 174
402.046102 -218.016064 1177.399429 49 35 38
406.850162 -248.794762 1180.422386 91 61 54
384.065410 145.235612 1223.570503 110 88 93
410.870977 -276.033213 1191.403675 189 163 149
410.410321 -250.309990 1186.061782 180 153 148
410.410321 -250.309990 1186.061782 180 153 148
386.427796 129.293075 1227.006024 109 81 91
412.590469 -270.765817 1198.461945 102 79 74
413.693868 -277.492979 1200.001214 100 69 62
410.606255 -219.172153 1183.336297 132 107 120
413.410039 -238.181209 1183.129707 177 150 134
389.353542 202.462565 1065.864692 104 80 71
391.268002 211.392093 1004.988236 95 70 62
415.649516 -221.282351 1190.509838 75 51 61
419.201395 -273.657280 1203.865422 119 89 81
417.753168 -241.143387 1189.695990 116 85 72
418.949712 -251.547940 1198.100348 83 52 41
420.388297 -208.100316 1192.093821 118 94 102
399.687774 143.062675 1225.796827 48 35 43
410.027050 -19.592633 1234.816101 44 31 33
400.140805 145.790768 1220.331917 86 69 77
425.483875 -226.732001 1197.730545 36 26 27
429.363277 -230.405500 1198.438463 143 115 104
427.398966 -214.569467 1202.174951 74 48 56
421.893015 -124.301688 1240.206925 84 63 68
432.722911 -249.336585 1202.500926 58 37 36
412.604154 133.971197 1226.322034 150 120 109
414.183392 150.028279 1214.467743 96 73 86
420.784959 49.414600 1240.653546 65 42 52
438.814587 -234.238221 1205.164501 141 118 121
415.188086 159.686560 1212.067192 100 75 95
444.597311 -311.266252 1224.060752 204 173 163
441.760007 -222.832992 1209.004351 38 26 24
424.095814 139.030078 1226.890985 96 75 77
424.454572 146.412077 1220.787402 79 65 77
448.483649 -227.126661 1216.146627 101 77 65
445.328721 -132.512722 1239.299920 129 98 91
439.339744 11.039210 1244.751894 153 123 111
451.915626 -119.407981 1245.913240 100 76 86
433.190536 162.355133 1047.480768 61 43 46
458.947112 -164.002561 1234.939942 117 90 93
455.926249 3.757619 1247.496859 47 33 36
467.535163 -183.453623 1238.512368 122 94 104
448.513494 138.321559 1227.321407 106 85 81
451.943440 144.210715 1225.361343 31 19 24
470.212374 -115.298920 1250.043115 137 114 114
470.212374 -115.298920 1250.043115 137 114 114
441.146399 226.346837 1027.024827 105 76 71
463.402496 11.186700 1245.460804 161 127 113
444.577677 219.043408 1062.396700 115 82 72
444.577677 219.043408 1062.396700 115 82 72
473.712611 -137.176184 1246.447663 102 77 81
474.020318 -145.891684 1242.807290 110 87 92
461.611874 125.535988 1227.389467 154 122 108
476.712494 -90.319204 1252.754673 141 118 117
476.712494 -90.319204 1252.754673 141 118 117
480.120817 -131.790837 1247.712915 113 89 95
479.888071 -112.333194 1250.823882 59 44 50
460.987421 175.108100 1206.522567 111 94 98
474.271727 -7.216699 1246.060449 55 41 43
450.137435 227.003778 1037.454208 106 77 69
475.932557 -18.300619 1242.438867 28 19 24
468.216919 108.611441 1232.264127 63 42 41
467.268727 135.308594 1229.061186 57 32 29
488.154470 -129.380413 1255.580121 76 51 59
481.927282 -12.074995 1247.544717 128 100 102
482.042335 -1.989716 1246.385351 137 116 119
481.105209 13.764452 1243.539802 109 86 96
480.930077 35.188410 1239.883690 110 84 97
484.550732 -23.976289 1234.510074 108 84 90
484.550732 -23.976289 1234.510074 108 84 90
490.477205 -100.457366 1254.153622 122 95 100
480.148765 61.168954 1235.306338 129 107 108
480.148765 61.168954 1235.306338 129 107 108
492.400035 -93.088843 1257.788069 35 23 27
475.736687 188.537243 1203.513233 65 46 51
495.296978 -76.624280 1259.130308 37 23 27
495.296978 -76.624280 1259.130308 37 23 27
495.296978 -76.624280 1259.130308 37 23 27
494.123559 -16.640729 1249.727923 37 24 26
485.959634 151.027205 1221.045058 34 22 22
485.191916 157.715281 1217.396332 44 32 38
496.445143 36.479238 1245.138591 42 29 36
495.289317 60.706902 1236.627886 126 104 104
495.508685 69.403019 1240.681953 44 28 34
495.508685 69.403019 1240.681953 44 28 34
498.937218 93.869179 1246.775017 122 95 102
511.946086 -145.445818 1272.733039 198 162 149
490.783010 149.104518 1219.795423 106 86 91
498.076048 75.947736 1232.429095 123 99 110
500.536250 63.822430 1238.876640 37 27 31
515.423117 -127.780317 1276.164096 190 160 142
493.443926 172.573746 1215.013825 119 101 118
500.038899 124.045401 1228.398969 86 58 54
509.074087 131.676749 1236.200617 90 53 52
514.176570 78.394023 1253.724536 197 166 152
513.238022 100.893269 1247.497990 207 175 166
511.598538 122.165685 1239.072491 121 71 62
520.208401 25.534155 1265.524472 217 180 166
524.924054 -23.263856 1274.976646 49 35 33
513.658565 116.517412 1243.617549 255 239 236
513.658565 116.517413 1243.617549 255 239 236
513.949672 129.083462 1240.257033 254 237 233
517.678545 109.028028 1251.155219 128 101 103
532.762098 -40.526959 1289.195204 213 175 164
525.509168 63.046671 1260.720830 206 174 162
528.920593 243.947676 1117.924887 61 79 51
576.508422 -95.447940 1342.575075 171 140 129
576.508422 -95.447940 1342.575075 171 140 129
594.601415 -257.160470 1391.059126 208 173 163
535.825504 239.095542 1124.619482 103 76 65
605.594731 -336.534145 1406.952713 231 192 177
604.608214 -280.812374 1399.555390 205 172 159
567.770822 184.364056 1295.153563 190 159 150
586.334528 38.205860 1335.178971 205 174 158
580.868540 139.860974 1314.644398 199 169 158
623.650680 -319.678198 1418.037510 147 119 129
594.152212 89.820010 1345.381233 202 168 158
597.140677 46.913944 1345.295165 175 137 123
596.205704 121.050936 1329.991403 125 100 118
596.159557 149.921641 1327.878745 116 96 114
587.880887 227.210140 1298.070598 136 113 106
633.643329 -253.937491 1417.312094 99 81 81
637.831550 -241.573104 1422.628656 186 153 140
649.213141 -288.584006 1473.450845 50 30 40
642.237155 -253.025318 1427.741659 106 86 82
611.328294 83.515639 1351.613860 149 126 114
611.328294 83.515639 1351.613860 149 126 114
633.188887 -133.213696 1411.861586 147 116 113
600.649058 254.183773 1309.129301 55 35 37
630.077988 -4.948128 1385.027568 120 98 104
631.182014 -11.918258 1386.041932 147 125 122
631.182014 -11.918258 1386.041932 147 125 122
632.832345 -9.148732 1383.954558 38 20 30
633.606723 -14.140771 1386.451387 32 16 27
606.997109 257.985243 1315.116723 65 44 47
615.953390 231.164764 1327.474333 121 99 81
655.970599 -126.995234 1431.417079 190 157 143
679.172470 44.812518 1615.890555 97 81 76
666.529264 -213.867861 1453.933297 148 107 105
666.529256 -213.867862 1453.933297 148 107 105
619.261735 247.025517 1328.964898 149 131 122
678.332062 95.253606 1607.135947 88 71 80
623.416270 230.303743 1336.860056 69 51 45
620.812767 251.754620 1328.530570 143 128 121
621.364836 249.132299 1329.633687 93 69 68
620.775911 255.094038 1327.663784 89 66 70
680.945016 51.091180 1601.793052 95 77 85
678.282778 125.586590 1604.041454 99 78 85
678.137908 167.869596 1596.890860 95 73 78
688.597144 45.531231 1617.694186 41 28 31
677.028358 -231.887718 1466.137672 159 126 116
675.474630 188.647179 1586.970940 105 85 81
667.056667 -116.639728 1435.372499 94 64 58
742.868029 -311.266837 1792.652370 94 84 73
671.404232 -130.299833 1444.630809 99 63 68
675.180883 226.291464 1572.542839 114 93 91
695.999505 31.263460 1624.171560 112 96 94
748.306115 -310.589759 1797.950335 40 24 20
-24.134934 -307.876480 739.803866 186 157 150
-110.274836 -57.664260 809.354629 24 19 22
-22.407227 -297.112820 739.769069 136 109 113
-20.516643 -298.480495 740.495583 140 109 106
-116.169943 -24.628355 824.379323 28 16 9
-108.644097 -50.723864 819.922636 30 21 21
-105.181253 -56.248706 822.347034 23 17 19
-116.507816 104.474128 841.470161 86 73 68
10.576766 -202.907103 760.772999 70 52 52
14.476169 -281.955239 780.613723 183 148 135
22.861437 -300.618848 783.750320 185 154 143
28.266207 -297.000811 788.055434 67 47 48
25.847290 -318.896950 793.745377 114 89 97
25.847290 -318.896950 793.745377 114 89 97
32.881181 -199.098771 780.040896 81 69 85
34.526385 -226.291367 793.099821 60 45 51
33.647500 -242.179394 795.771094 54 40 43
39.029078 -289.901078 800.393560 17 17 17
52.426214 -304.756619 808.845721 17 18 18
53.486063 -332.318576 822.231864 169 140 135
-45.656279 28.155621 917.849358 44 23 14
60.752939 -286.682567 820.969275 51 38 44
60.502498 -281.702515 821.534501 48 34 39
61.313591 -293.177835 821.588128 123 107 127
60.674051 -276.966274 823.730660 100 87 103
63.582470 -266.814182 821.423938 103 82 94
63.652483 -290.424203 823.341969 71 53 65
62.708319 -286.614030 824.244147 67 50 58
60.923900 -294.607571 827.885547 116 95 111
63.161888 -282.619762 824.888497 102 84 100
65.654684 -288.081999 826.473683 58 40 48
65.073087 -274.721516 827.810488 46 35 37
65.073087 -274.721516 827.810488 46 35 37
69.004673 -275.265304 828.842015 94 80 92
70.353827 -220.789916 824.211198 103 88 104
70.353827 -220.789916 824.211198 103 88 104
72.193474 -223.526506 825.354315 63 51 56
72.111590 -215.330092 826.617428 109 95 120
68.020149 -269.722685 835.603542 117 99 112
68.020149 -269.722685 835.603542 117 99 112
71.635043 -274.004274 832.262785 104 88 98
72.358420 -276.018348 833.848783 66 50 61
70.570316 -272.427900 836.117111 34 24 28
73.767288 -249.870859 833.268749 35 22 26
74.628487 -339.087938 839.075388 93 83 91
77.781876 -322.469451 847.846959 94 58 54
79.784645 -327.446108 849.476085 160 131 127
82.888915 -337.929652 847.716521 91 80 84
85.693434 -337.156903 848.889149 91 79 80
85.693434 -337.156903 848.889149 91 79 80
86.736386 -303.296952 845.969253 121 100 99
84.444883 -282.286997 847.596818 16 16 15
84.243025 -321.926521 854.021459 174 143 141
85.120192 -316.735073 852.895391 177 147 144
89.481199 -308.045186 848.541173 88 72 75
90.319015 -234.907064 843.780749 125 106 113
87.875526 -333.507156 854.160795 78 66 80
87.875526 -333.507156 854.160794 78 66 80
90.355414 -286.829447 847.736774 99 82 89
91.132033 -337.047960 856.780432 75 68 77
91.884296 190.421148 816.708167 153 123 104
94.144102 -287.787346 850.093888 60 46 48
94.144102 -287.787346 850.093888 60 46 48
94.015401 -335.997341 857.454022 78 71 75
93.131233 -209.372501 850.422744 77 67 77
95.078712 -192.515483 846.661612 25 19 21
91.237521 -294.037210 862.565661 106 84 92
96.254047 -207.762305 856.183205 179 145 139
96.254047 -207.762305 856.183205 179 145 139
98.580712 -279.279606 865.149527 109 87 105
100.305676 -167.484932 856.264021 81 56 61
103.500069 -266.728653 868.045535 182 154 150
106.722440 -334.487660 872.942557 71 65 75
103.762694 -306.085285 884.357507 171 138 130
114.918859 -184.603118 870.186087 62 72 72
118.640065 -332.053653 881.872954 76 66 74
117.900034 -328.997498 885.355757 88 76 92
120.014304 202.038763 842.351353 132 111 99
123.524316 -331.899601 889.283900 68 60 69
124.103065 -329.779294 891.146440 36 25 27
116.940680 -254.143692 897.992844 173 141 137
129.285959 -331.274914 894.023687 19 14 16
127.873913 -117.803607 881.007402 93 66 73
138.109347 -130.174579 885.675158 46 34 35
136.438868 -223.825401 898.687532 129 100 94
123.514304 -358.247773 933.185832 24 14 15
136.761569 -316.687362 908.755644 183 149 143
139.418025 -329.633154 906.184635 73 62 69
139.418025 -329.633154 906.184635 73 62 69
136.903202 -74.679803 886.189196 138 119 117
137.286586 -64.707976 885.013226 119 100 108
140.685865 -142.746968 894.964550 83 65 60
142.860825 -325.688277 911.292647 117 95 102
141.662921 -75.006188 890.080896 118 97 99
146.154621 173.929365 861.520012 68 50 44
144.258365 -23.282306 885.061053 92 75 84
148.013378 -328.277627 914.059955 77 64 67
148.413603 174.443539 862.993403 99 82 75
145.003295 -344.983411 923.291974 63 47 56
175.401136 -305.398902 871.535885 41 29 33
150.671958 -324.861544 920.067182 97 82 88
152.124901 -73.105493 894.276564 117 98 94
152.736136 -329.095055 923.043806 30 25 24
154.846341 -281.275641 925.359993 152 113 109
161.556109 -54.598367 906.869764 48 41 38
162.181683 24.993573 902.704506 161 130 125
163.435003 -22.699378 908.464957 175 143 131
163.772147 -39.446347 909.867062 164 130 116
164.102913 -14.089790 907.502789 173 136 123
164.319119 -7.104811 909.512637 92 74 91
169.731831 90.785053 902.810254 173 137 129
174.783601 35.469857 904.380064 185 150 139
175.923737 136.203269 906.366867 108 100 90
177.436284 112.040523 910.383507 68 37 27
181.618651 -265.734008 951.476609 156 120 112
178.743989 124.065629 911.444294 124 84 100
184.935975 -292.049133 956.130785 163 129 119
185.749747 208.146807 896.881518 61 46 44
183.063599 112.728870 916.290660 67 36 28
186.101216 106.671086 920.059466 147 102 101
187.185053 131.289278 919.996100 179 148 135
204.212300 -168.457336 964.097736 163 124 114
204.729529 130.214950 936.727421 170 137 132
214.896476 -193.545913 978.257329 214 176 163
220.958826 -288.336994 993.828652 167 128 121
220.958826 -288.336994 993.828652 167 128 121
224.754853 -367.348806 1005.594043 133 99 97
221.295591 -0.660698 965.988067 142 109 96
227.620022 -298.745203 1000.968553 176 136 133
227.477223 -118.828053 982.035008 185 152 148
231.588630 -296.601067 1005.486271 164 126 121
231.588630 -296.601066 1005.486271 164 126 121
232.905419 8.044518 978.126424 172 137 131
235.430967 -41.918992 986.210298 153 119 108
242.322488 138.649751 947.154713 93 56 42
240.161732 -71.830419 991.491042 91 73 70
242.652185 5.074514 986.631996 59 36 31
243.332961 -18.378608 989.478521 111 81 71
240.891077 106.943610 977.228281 57 42 41
243.478635 148.299675 970.612681 61 49 49
246.234569 137.955838 972.131299 166 134 124
246.443830 39.898659 989.406231 182 148 137
246.443830 39.898659 989.406231 182 148 137
246.396929 39.916293 989.466667 182 148 137
246.396929 39.916293 989.466667 182 148 137
253.443288 -105.674682 999.282881 116 93 100
250.958510 -66.473305 998.060690 29 24 22
248.146954 -0.458195 993.451629 149 118 109
251.774379 -66.244811 996.896716 29 24 22
246.165158 61.354578 987.382770 179 147 136
244.692341 127.800874 980.672672 179 143 131
246.824439 134.093506 976.448511 176 141 127
255.920055 -175.844733 1011.182254 201 166 153
255.654825 24.308182 995.635282 128 101 93
255.654825 24.308182 995.635282 128 101 93
255.654825 24.308182 995.635282 128 101 93
268.678196 -364.743004 1049.766883 169 133 123
263.301966 -119.705541 1022.853899 144 125 127
258.822186 84.381474 994.755905 75 52 47
270.050978 -365.537327 1054.640885 167 130 119
271.247348 -368.491254 1053.305669 167 130 119
261.970491 37.243929 1003.981927 114 93 100
265.691614 -108.738545 1025.839347 134 112 122
262.983899 30.274012 1005.262820 66 49 52
261.478049 55.360614 1005.407944 129 107 120
262.358217 43.759442 1006.160127 58 43 54
279.453227 189.572616 939.258036 57 38 32
270.071692 -118.158317 1029.752433 77 54 65
272.388701 -125.925784 1032.875405 60 46 57
272.388701 -125.925784 1032.875405 60 46 57
277.143086 -140.885403 1039.090434 46 33 37
271.223691 -47.036141 1039.000287 38 29 34
278.882919 -144.606680 1040.170675 109 86 100
282.413998 -233.278840 1051.294460 141 112 115
270.224702 -63.591500 1051.770391 135 109 112
270.636020 -60.886068 1054.907312 139 116 120
283.053704 -155.117721 1046.682255 42 33 37
260.045031 83.071943 1068.069847 167 150 152
285.693670 -162.207982 1050.144799 74 52 63
284.985733 -147.028716 1063.184483 160 139 138
284.321693 -142.807784 1065.419201 71 56 65
293.336171 -186.427594 1060.460861 87 62 75
293.523602 -222.462631 1072.594057 93 73 71
290.031839 -157.573354 1077.369706 68 53 56
301.785176 -238.696841 1070.826856 176 139 132
303.175717 -211.675812 1064.819895 59 41 40
272.069101 -101.363669 1136.917593 75 62 71
301.702429 -194.557714 1071.170151 88 64 71
310.585331 193.822760 967.870834 92 62 57
285.016287 -124.839539 1124.294462 139 112 124
307.224842 -193.233354 1073.512486 116 94 107
310.634702 201.064985 966.869222 93 62 54
308.453650 -273.799374 1090.235812 198 164 155
302.565751 -177.690326 1084.950020 131 106 117
313.184470 -238.904364 1080.164503 95 73 63
273.538502 -53.564199 1162.383503 90 71 71
311.993260 -206.892889 1081.303038 75 52 61
305.831627 -171.197423 1100.131559 120 94 104
293.128815 -138.136954 1134.593661 148 123 120
293.972963 -148.511823 1134.746783 68 55 59
293.972963 -148.511823 1134.746783 68 55 59
331.856698 218.736314 927.858535 77 50 42
281.007475 -50.765231 1170.913313 29 22 23
325.192339 -344.512302 1110.481034 184 147 135
285.283533 -54.036196 1171.182717 112 86 84
322.322029 -215.518888 1093.256464 71 48 61
285.235526 -264.780652 1236.290137 108 87 106
330.134826 -363.561680 1114.454569 187 151 143
303.363484 -148.300022 1147.449573 133 109 114
330.488355 -346.955190 1115.323175 181 144 129
289.245143 -264.997093 1245.797983 72 51 58
332.347291 -330.355485 1116.768153 171 130 118
334.689754 -244.298160 1100.598751 89 70 63
338.490387 -338.632995 1118.069880 60 38 33
338.440654 -310.802331 1114.478687 66 44 39
336.635056 -254.720270 1107.531806 50 35 30
344.404751 -377.093838 1129.767984 180 144 136
336.935959 -209.356967 1112.588916 51 42 50
343.326285 -254.327626 1107.582654 129 105 112
344.669445 -339.349432 1129.106708 118 93 98
348.752233 -354.601406 1124.031798 122 100 101
300.903872 25.782906 1182.814399 255 190 172
300.488476 39.039561 1181.036105 255 190 173
300.346641 44.986600 1181.167584 66 40 31
348.377505 -374.544379 1135.297847 174 133 121
350.083028 -384.675923 1138.657647 171 136 122
351.387350 -354.735011 1126.346145 35 25 24
346.740012 -244.171089 1111.407445 136 113 118
344.968945 -214.002213 1120.284400 89 66 76
352.487364 -345.826231 1133.553009 23 20 21
348.431096 -252.340549 1121.634300 62 42 41
348.907220 -291.423327 1133.465800 138 115 110
348.907220 -291.423327 1133.465800 138 115 110
349.599033 -276.939047 1131.270095 94 71 70
349.474463 -266.253313 1128.470026 139 114 110
350.324384 -255.121069 1124.760744 143 118 111
351.453024 -248.281469 1118.920782 157 135 127
351.123963 -270.134270 1130.270879 83 59 58
349.680332 -223.077294 1123.032875 72 51 58
352.429055 -281.185763 1132.703929 161 136 132
350.716200 -230.283464 1123.793788 114 88 101
350.481010 -219.523118 1122.736761 117 92 89
353.839020 -241.440947 1120.551283 109 88 73
362.091784 -381.227646 1137.366353 123 100 105
354.328901 -274.891294 1132.856700 113 84 79
356.264904 -256.116480 1124.766697 165 141 136
352.982858 -218.130886 1126.802588 104 83 92
355.743821 -265.336205 1132.458687 48 33 30
354.658788 -224.065839 1128.990906 109 87 101
357.162528 -269.294449 1134.329185 165 139 128
359.719430 -311.734874 1141.320901 188 159 146
371.582226 -200.662576 1066.769536 29 20 22
359.255885 -273.384861 1138.845895 81 58 50
360.491212 -317.471369 1148.465664 115 86 82
359.111285 -224.747705 1133.103141 103 82 94
361.637542 -246.194660 1130.342980 124 102 86
362.124799 -265.218542 1138.800492 135 111 98
330.774633 -123.364100 1218.170963 96 74 78
326.720939 -44.373256 1217.447207 36 26 28
330.004902 -56.495884 1221.835230 125 97 107
392.401111 -184.454341 1017.525607 108 89 107
364.206721 -218.956997 1145.298002 107 90 92
331.545413 -47.465367 1219.305912 67 45 50
371.627607 -334.342549 1161.709511 116 86 82
364.881800 -215.631723 1148.886676 29 25 27
368.226604 -223.601573 1143.846741 33 21 24
374.205754 -345.560164 1164.905929 156 133 127
374.225639 -331.902835 1162.608366 170 144 139
374.231950 -336.268428 1164.509483 117 91 86
335.275873 -44.760304 1226.477277 97 80 82
376.134230 -366.569234 1170.831315 97 75 70
377.160605 -352.199589 1169.033616 121 114 118
377.782788 -345.503654 1169.318343 145 124 115
380.016573 -320.594695 1161.352364 177 146 137
375.405275 -221.881304 1149.341756 112 87 94
383.152207 -358.900819 1171.245497 104 83 78
345.466901 -97.604339 1244.218712 17 12 12
388.613255 -357.429105 1173.667715 93 67 64
373.795016 202.624347 1032.247693 96 65 60
388.640851 -307.146440 1165.419114 110 82 74
389.560299 -344.092196 1176.129032 173 149 144
389.103880 -316.731604 1168.202556 132 103 94
387.982508 -334.813423 1181.891641 151 130 126
388.629485 -290.618943 1163.856335 117 85 84
390.221793 -308.779542 1165.835167 153 126 118
391.204745 -346.177771 1176.775003 121 98 99
392.626679 -357.538795 1176.890150 102 81 81
391.094268 -294.372443 1164.555159 169 143 135
392.807513 -352.310786 1179.480289 167 148 141
392.041404 -344.293143 1181.631398 168 149 145
391.360322 -334.636527 1182.858289 113 89 85
392.561448 -321.218012 1174.119632 195 168 161
387.035651 -221.920621 1160.902261 115 90 104
357.889602 -99.609968 1248.784262 96 72 76
394.929407 -353.247999 1184.774385 112 92 93
395.665949 -356.875108 1183.052751 107 87 88
393.718430 -332.732161 1183.159360 157 132 127
394.927124 -295.925927 1169.519760 132 107 101
394.927124 -295.925927 1169.519760 132 107 101
395.506229 -332.263709 1185.333569 134 105 101
395.759633 -337.918975 1187.671759 112 86 80
374.688683 -145.970581 1222.701950 127 97 94
363.176302 -88.784235 1255.646220 104 80 84
363.176302 -88.784235 1255.646220 104 80 84
419.243562 -18.714831 966.613157 88 70 71
402.314051 -310.100878 1186.679190 158 129 124
402.243937 -248.469167 1177.095421 173 144 134
406.927305 -349.476844 1205.522978 69 48 47
406.927305 -349.476844 1205.522978 69 48 47
407.942829 -248.885511 1180.725667 92 63 56
412.012324 -318.939097 1201.773809 75 55 53
412.311466 -275.863568 1190.169614 179 152 141
412.310487 -270.786067 1189.962527 84 57 57
417.887497 -326.008730 1201.935647 175 148 139
413.912596 -247.697173 1191.295586 168 140 130
417.487098 -306.183232 1203.807537 166 137 126
416.656163 -270.508835 1200.067827 154 130 121
425.203725 -388.740577 1210.560391 186 151 141
424.062213 -345.656728 1203.637609 39 29 22
417.672755 -262.229196 1199.417403 144 119 112
418.524371 -266.723739 1200.060001 107 82 74
424.832278 -336.728093 1205.902511 139 123 115
424.745516 -340.247721 1208.235061 41 27 26
426.885602 -350.181702 1203.860530 96 72 72
421.832215 -261.580638 1201.302747 81 57 55
421.832216 -261.580638 1201.302747 81 57 55
401.385089 -112.093375 1246.277045 120 92 91
427.223287 -337.004517 1214.597417 23 18 19
432.145121 -362.181910 1223.644727 179 144 134
434.143644 -344.292873 1215.384946 28 22 16
433.855093 -272.340500 1207.783009 59 38 39
433.637799 -244.368656 1204.346212 56 36 30
433.675627 -238.577078 1202.192500 53 33 29
436.869048 -245.584254 1205.472464 119 98 93
398.056954 117.664683 1246.825894 66 51 60
444.714624 -359.794467 1235.170688 187 152 140
438.611127 -232.049260 1206.277861 104 81 79
434.985927 -188.595207 1216.447071 37 29 30
434.985927 -188.595207 1216.447071 37 29 30
437.967352 -203.414230 1214.705926 112 88 92
437.967352 -203.414230 1214.705926 112 88 92
442.673808 -249.304305 1216.337859 182 149 140
414.232710 10.311407 1253.604830 142 112 99
416.994341 -12.087159 1248.821230 91 68 73
447.781615 -236.221209 1225.205319 171 141 134
429.220038 78.802337 1246.427395 49 35 38
426.819246 128.672220 1232.168969 40 22 19
428.480873 117.568787 1241.565914 49 35 40
439.182905 10.698050 1253.758822 139 112 99
463.961855 -220.750571 1241.634947 174 141 126
437.154495 120.111920 1239.774420 133 103 95
465.596369 -173.643042 1241.861282 68 46 56
468.597640 -175.365652 1241.479537 119 98 105
451.943260 222.788629 1083.179334 75 53 47
460.600998 -97.169405 1254.483071 103 76 79
467.341852 -151.580014 1245.286360 90 67 71
456.675791 -19.249688 1243.442197 24 22 22
443.158466 132.881053 1242.290456 42 28 31
444.640730 188.235617 1224.558737 60 43 51
447.861409 139.269126 1240.113216 92 74 70
470.952601 -116.523235 1254.397869 123 101 101
480.686136 -200.750333 1258.234401 167 136 121
474.982368 -128.142559 1253.670875 45 33 35
452.762208 133.439076 1240.685402 45 27 26
463.548747 10.546499 1254.446433 146 116 103
466.709066 -13.070702 1251.228984 115 93 89
477.165082 -90.832245 1258.522038 131 108 105
455.926255 192.383172 1216.808724 134 93 84
461.015278 126.854246 1240.063415 137 109 95
474.424183 -7.898960 1255.387747 42 31 35
462.568913 150.857549 1227.446627 88 67 83
480.443514 -76.959595 1260.011300 103 80 85
480.443514 -76.959595 1260.011300 103 80 85
476.133918 -18.630002 1250.677448 24 19 21
477.041650 -24.784703 1248.031382 47 34 37
485.335267 -107.260511 1259.220649 96 73 80
481.389512 -22.636951 1247.074962 104 88 96
466.493447 157.241397 1244.896184 47 33 42
488.918746 -91.413139 1261.788141 91 69 73
482.267395 -12.455060 1255.853021 107 86 87
482.190297 -2.346423 1255.472585 122 101 101
480.014101 61.445032 1246.180340 108 87 90
493.060710 -93.952836 1263.365816 30 22 23
500.985947 -167.887565 1274.588588 181 148 135
495.861052 -77.167974 1265.327231 30 21 23
497.967464 -80.344192 1265.281412 95 75 86
558.476593 -15.341556 621.413100 58 44 50
497.561527 -61.046065 1265.491047 33 26 29
497.561526 -61.046065 1265.491047 33 26 29
508.160531 -167.719758 1290.966389 188 154 143
496.549192 20.305887 1256.387330 38 30 34
496.707938 29.017669 1253.707170 104 85 94
487.865481 171.976880 1227.530651 112 98 107
496.977733 56.006967 1260.032337 68 51 54
495.311465 95.097741 1246.508040 105 86 94
495.011892 107.629988 1242.460248 84 63 60
505.231646 -31.617170 1293.326609 67 53 60
498.998103 97.194680 1248.061332 69 48 63
493.653777 173.742406 1223.038429 92 78 100
509.355634 -30.342330 1278.055760 67 53 60
494.334375 220.091285 1157.744453 100 73 62
524.512373 10.405925 1194.939949 29 22 22
504.222514 70.547275 1252.601020 28 21 24
494.956549 202.127077 1217.809861 118 95 107
521.233585 -99.811149 1288.152696 91 66 57
508.440726 63.397713 1254.237893 93 74 91
509.719907 112.540973 1251.615687 90 53 45
519.254341 7.114632 1277.118535 73 60 69
511.606132 123.034780 1252.126330 93 51 43
520.605049 25.660235 1274.453132 196 163 148
518.956001 45.410351 1270.582792 97 72 77
514.317406 116.893547 1256.274623 255 222 208
510.141175 162.396573 1257.310489 180 149 136
511.455154 161.942142 1252.536289 180 149 136
512.313240 153.520863 1257.389798 182 153 135
514.939718 142.241382 1256.115076 106 91 93
524.160833 60.230477 1273.107544 191 161 147
522.297031 137.117982 1261.789148 190 163 145
540.900867 -33.365410 1302.751446 125 93 84
544.442956 178.991197 1260.232735 165 137 133
600.850955 -423.477944 1403.912397 102 64 71
604.494072 -408.342542 1403.507567 116 86 89
594.337589 -300.140491 1389.743981 201 170 155
594.614171 -299.593589 1388.093538 201 170 155
558.055350 107.236695 1301.657376 177 146 141
598.949138 -314.272962 1391.375088 116 87 100
552.074903 186.968589 1266.651036 120 96 81
608.600867 -374.827652 1409.543980 188 153 141
608.600867 -374.827652 1409.543980 188 153 141
611.166857 -385.928716 1411.887216 203 173 158
606.825450 -336.087211 1405.918622 214 175 161
561.245283 192.398686 1300.451096 83 72 68
632.495908 -408.516562 1437.133460 58 39 49
573.104107 188.904762 1313.971118 81 60 55
635.879930 -406.214822 1441.864164 97 77 85
635.879930 -406.214822 1441.864164 97 77 85
637.969579 -411.912607 1442.843749 59 41 48
637.691493 -401.703986 1437.927112 71 57 59
639.743917 -408.684231 1447.640407 50 34 41
601.797946 -23.345810 1367.645255 179 145 136
642.096510 -402.913157 1452.299966 50 34 37
627.549891 -249.759414 1417.162406 145 113 108
580.013280 218.564922 1309.925780 52 32 27
640.245295 -362.646147 1447.854727 27 20 21
601.726660 14.766154 1361.029153 26 19 20
596.736278 81.710809 1350.546147 110 87 98
645.141590 -391.148913 1403.742480 50 34 41
587.697340 180.151966 1331.901813 150 128 123
595.348508 117.960378 1345.524664 120 92 104
650.392527 -401.555858 1460.086335 51 36 41
650.392527 -401.555858 1460.086335 51 36 41
651.471810 -412.947539 1451.017824 115 92 106
651.993672 -404.037521 1458.780884 100 84 90
604.455865 53.692565 1364.174619 32 24 23
637.355939 -258.552800 1419.719293 25 19 22
586.876788 227.441928 1315.704772 74 51 52
653.933547 -409.340090 1458.473237 56 38 46
654.647523 -398.728156 1464.736862 96 77 86
601.525696 112.724917 1352.050870 107 84 95
618.180837 -45.547452 1382.798175 55 40 33
660.715662 -402.795971 1467.428712 93 79 84
660.725904 -396.035025 1474.921044 56 33 40
601.036294 165.797886 1348.919145 113 89 102
654.023756 -321.608712 1481.411903 71 50 53
662.265057 -407.571330 1467.367989 52 36 42
663.274256 -400.059426 1471.466131 67 52 56
594.633741 249.035775 1323.620424 114 96 86
623.889277 -16.025669 1385.909855 145 125 120
668.864838 -425.849970 1464.548749 113 94 102
606.335039 168.114382 1352.795345 92 42 41
666.054767 -376.433375 1476.645966 146 115 117
618.513071 64.757385 1375.934846 112 87 79
647.535579 -201.754183 1432.137369 140 106 103
625.172623 16.299701 1386.798331 69 47 64
606.877964 188.876638 1350.750869 114 52 70
657.847186 -276.728627 1461.844491 114 89 93
622.633716 44.913452 1376.751056 106 86 92
599.494061 263.869812 1325.355065 48 32 35
659.876090 -281.605370 1464.668200 72 51 61
600.474050 260.597004 1327.315783 107 90 87
676.046545 -323.833292 1777.360619 41 28 23
639.144050 -86.850158 1410.082056 74 55 46
630.461471 12.577314 1393.256788 109 93 98
676.781651 -400.583915 1483.643829 85 71 81
634.844355 -9.504941 1396.733823 30 15 23
615.615894 170.568968 1364.376138 123 99 102
642.023936 -47.504741 1411.228740 105 85 89
611.294140 229.294640 1341.945749 101 80 82
692.164265 -341.150634 1866.824247 75 66 61
652.702617 -115.604712 1443.153098 190 152 142
684.571360 -409.210533 1487.897530 91 71 88
653.832025 -113.858541 1432.990952 190 152 142
687.032409 -404.897608 1493.119957 56 38 44
614.196800 247.983392 1343.447991 53 35 30
667.179588 -214.584788 1456.159340 131 93 91
614.331572 265.713575 1341.245695 47 32 37
616.370365 261.937083 1343.372214 57 38 34
616.370365 261.937083 1343.372214 57 38 34
693.528022 -421.845591 1488.993263 86 68 80
618.470959 254.080454 1347.841233 67 49 41
693.032375 -398.484101 1500.573327 87 72 81
669.924931 -189.994276 1458.842649 185 149 140
657.965940 -88.915078 1425.459817 154 128 123
667.990715 -171.751326 1452.331767 178 143 131
688.091007 -300.461576 1521.352712 125 105 104
678.340876 -232.382932 1467.238294 141 111 105
680.993383 -249.632559 1465.928797 41 28 28
700.576761 -408.118192 1506.925023 103 82 97
673.012257 -145.096428 1452.724449 77 51 56
741.720542 -560.779874 1856.355426 254 245 239
679.850219 -174.787371 1459.384529 50 38 38
700.629027 -342.667965 1514.339973 97 77 77
664.783993 91.078250 1627.733447 102 77 67
668.849424 47.761685 1616.446751 85 71 75
679.213835 -145.078245 1461.811324 40 34 33
739.703094 -453.764549 1877.636250 133 109 113
739.703094 -453.764549 1877.636250 133 109 113
699.365487 -278.001794 1505.847716 104 84 87
699.463417 -273.237550 1505.181492 117 98 99
752.451559 -555.879418 1861.122181 255 239 222
686.301047 -161.884905 1460.819397 116 95 86
697.569366 -247.342038 1483.410908 41 28 23
711.409358 -352.245508 1525.577731 145 124 120
680.380237 -92.339583 1455.182892 99 76 83
698.252866 -238.274654 1488.858421 175 143 130
712.436484 -347.575625 1525.427432 107 85 92
663.645426 199.645920 1604.065830 93 75 79
694.620451 -181.154403 1480.289291 110 89 92
739.012760 -345.482729 1865.698979 121 99 98
663.988389 211.275518 1599.707812 114 96 93
703.132290 -234.271093 1493.122472 130 97 93
688.263967 -106.723428 1451.171482 94 77 90
706.275368 -247.934064 1490.500016 82 72 65
694.229997 -144.175139 1471.084466 90 74 82
694.229997 -144.175139 1471.084466 90 74 82
671.422291 192.874659 1613.308829 26 20 22
691.846871 -115.495475 1462.067275 30 20 25
707.867759 -236.781967 1497.846459 171 141 129
694.751825 -119.778849 1464.074621 89 74 90
697.485035 -125.709272 1472.392590 52 36 48
650.762540 268.992247 1389.356718 168 137 122
714.075611 -246.468383 1497.710647 75 66 61
677.925442 197.000582 1608.528304 104 83 81
696.401614 42.655948 1639.320420 108 93 90
733.835410 -386.986898 1552.081590 53 36 40
736.095472 -398.233179 1543.745032 51 31 39
736.095472 -398.233179 1543.745032 51 31 39
681.845228 191.554656 1617.190408 94 76 77
682.662624 198.617216 1615.558407 106 87 88
712.873043 -175.358637 1499.752220 110 87 89
11.620392 -382.529732 801.996303 61 39 35
14.371508 -380.674263 800.125597 57 33 34
27.339819 -346.290602 790.732517 69 63 71
33.392330 -227.151378 789.174832 125 106 109
31.171915 -345.910301 793.230811 20 14 16
33.055500 -236.176801 790.976302 119 104 110
29.426917 -342.264192 794.876241 84 74 82
33.373998 -309.019597 794.869352 69 56 62
18.295086 -432.584658 811.232273 51 34 47
95.439963 -312.422904 754.406414 69 63 71
12.119804 -392.868247 818.089703 80 59 58
38.027029 -290.411301 800.822337 16 16 17
8.619790 -380.288795 824.149688 120 103 117
23.344894 -443.415444 815.182332 99 84 98
17.377124 -437.101137 820.917669 110 97 113
40.174822 -297.687141 804.264005 141 126 134
42.786547 -307.016105 803.117304 123 109 119
11.090506 -375.242413 830.481954 115 98 111
151.456580 -284.526507 724.485311 69 63 71
44.416434 -257.875361 807.167632 122 104 111
44.416433 -257.875361 807.167632 122 104 111
46.787813 -343.745407 810.435195 20 16 16
49.738102 -343.171454 813.179668 71 65 65
52.906113 -285.278725 818.098085 88 75 88
55.673551 -342.572534 818.619742 22 19 19
56.450211 -266.224257 818.101873 59 45 50
56.450211 -266.224257 818.101873 59 45 50
58.619298 -341.700124 821.798224 71 67 68
60.578342 -341.333285 823.572026 78 71 69
65.888466 -222.241014 818.095701 52 38 41
50.368716 -366.243212 838.513533 26 14 12
64.581291 -341.063709 826.703580 23 19 18
63.972846 -288.106977 828.475042 65 49 53
65.645727 -274.646117 827.559321 50 40 41
70.736814 -220.726678 823.632635 102 88 104
65.464671 -340.970700 830.824261 74 67 72
55.989058 -365.180375 841.346219 138 112 107
71.392774 -215.434428 827.013744 113 96 122
67.775184 -340.248478 833.246288 79 73 74
56.595194 -370.120890 843.598833 62 43 45
56.221063 -374.741046 845.999482 53 36 48
72.153477 -226.947980 830.745069 112 90 107
53.717636 -415.174052 850.292412 63 41 44
72.966727 -339.478259 834.895762 27 22 23
73.456139 -249.938523 833.230782 40 25 31
58.083728 -381.839894 852.529006 148 125 135
58.083728 -381.839894 852.529006 148 125 135
76.995306 -338.674783 840.856431 96 83 85
64.095186 -432.297915 857.614626 51 32 36
80.483135 -338.983889 843.928328 28 23 25
50.417133 -374.600001 873.230981 37 23 16
-439.108440 -722.780300 1304.448565 47 27 20
83.249379 -187.717105 843.418909 18 16 17
85.360157 -288.671901 845.424100 88 71 78
85.469983 -177.539985 841.779789 118 94 104
98.993547 190.741572 822.850301 156 128 114
87.983575 -306.601616 846.880263 74 60 62
88.036209 -182.003047 844.975343 143 127 130
85.094476 -326.763435 856.720917 178 146 142
-495.661134 -673.295929 1384.180283 42 29 35
94.494004 -208.342688 857.742478 179 145 137
97.002483 -336.308469 860.922859 24 18 20
96.485499 -263.936498 861.101096 109 89 107
98.224785 -260.679783 862.771211 108 87 103
97.202530 -316.095810 872.122402 198 164 151
100.627276 -332.073334 869.940086 79 70 81
104.938899 -335.024414 869.076031 17 15 15
81.747638 -402.109602 896.554214 42 24 17
97.710066 -360.510528 883.678700 118 94 108
113.257152 -333.441674 877.189300 22 17 18
114.665369 -333.693780 881.650440 68 62 68
99.643900 -409.743838 899.250352 137 115 130
104.630697 -359.787748 894.036284 141 120 125
106.410695 -358.897165 892.952077 141 120 125
100.486038 -368.486873 899.842470 76 60 73
105.195828 -424.338736 898.211090 61 45 52
105.601239 -428.527157 901.790050 67 50 63
103.789876 -420.768392 903.831292 72 57 64
125.588693 -124.039268 879.392160 87 61 71
138.873024 167.836736 855.303515 117 95 93
204.507430 -111.896621 811.656639 110 88 105
139.912745 140.058245 861.501326 76 92 86
135.691263 -47.379389 876.598808 116 96 93
137.542988 -46.889926 875.515195 116 96 93
132.939678 -97.799370 884.399416 88 65 71
137.187771 -64.541511 885.308070 118 100 106
135.555553 -326.511117 902.338053 118 96 101
143.117756 -14.755399 883.426319 92 77 84
139.131075 -329.900308 906.208917 78 70 70
139.131075 -329.900308 906.208917 78 70 70
142.147329 5.164979 888.851607 131 110 113
140.489611 -338.030411 908.479422 85 74 79
146.111060 6.570307 887.206342 132 111 111
148.254262 27.303103 886.380590 128 107 107
148.254262 27.303103 886.380590 128 107 107
144.982393 -329.524359 910.949508 23 18 19
152.942407 -72.806255 893.605756 118 99 96
145.984096 -365.217768 924.478539 59 42 54
142.221318 -436.681792 933.446160 91 73 79
149.071858 -132.791395 910.991590 192 160 148
149.835647 -349.340837 925.356254 147 126 128
157.073459 -417.250689 931.489024 130 105 119
161.750311 25.170481 903.469871 167 133 128
165.314701 -16.439676 909.556345 173 132 122
167.153582 -16.108470 908.094187 173 132 122
168.949021 91.962848 903.883959 176 141 130
163.239993 -446.054628 946.652201 113 88 106
166.453814 -344.205735 943.869757 187 154 145
180.299991 -16.845658 909.096114 168 135 127
168.950487 -400.913895 950.205543 196 163 155
181.346995 145.812568 903.562027 121 107 102
172.173598 -438.241208 954.477601 201 166 160
172.173598 -438.241208 954.477601 201 166 160
173.625435 -391.674213 953.262120 194 163 159
173.625435 -391.674213 953.262120 194 163 159
173.543068 -342.549462 952.165125 189 155 149
175.149220 -416.558768 957.242153 119 96 111
175.149220 -416.558768 957.242153 119 96 111
176.936673 -352.330496 952.368413 108 88 107
177.357467 -373.367644 955.526927 103 87 108
183.278911 112.571132 916.458785 64 34 25
176.115680 -428.380349 963.410795 128 102 119
176.115680 -428.380349 963.410795 128 102 119
178.254600 -382.182100 958.147660 193 164 158
180.467390 -380.731237 956.237464 193 164 158
186.261163 106.720395 920.261323 152 104 100
182.401595 -425.452255 966.688957 197 165 154
184.070868 -366.657652 961.081737 192 160 155
243.372825 175.492712 912.527998 70 51 44
220.956984 -0.589658 966.538355 139 108 96
220.933844 -288.276218 993.702762 169 133 122
231.025015 -297.076524 1005.911372 164 127 123
234.571371 -445.765008 1019.869228 152 117 127
237.247616 -104.523600 993.218873 162 126 116
237.247616 -104.523600 993.218873 162 126 116
243.946503 -71.166071 985.499023 98 82 81
240.593797 -132.516231 998.768432 176 143 131
240.870095 68.536480 980.336222 84 61 55
243.620269 -437.080584 1030.242733 149 114 114
242.862156 -18.341151 990.117836 117 85 73
242.850638 33.587007 984.755755 46 33 34
251.791536 -94.061153 996.317474 104 81 87
246.605177 61.287376 986.852694 181 146 141
250.158743 51.330383 991.522847 107 79 91
250.040824 87.794416 987.415908 138 112 106
252.227165 109.891424 984.462407 39 31 32
252.227165 109.891424 984.462407 39 31 32
251.164604 133.967025 985.636013 128 105 117
254.990264 33.580247 990.792316 110 89 78
257.143876 -423.588323 1042.201750 217 181 171
255.547313 24.411465 995.803732 133 105 96
258.606100 36.153877 1001.442042 50 37 37
262.764243 -429.469188 1050.272714 222 183 170
259.169047 -27.255326 1010.513385 51 36 37
262.644473 -189.352292 1027.997685 142 106 96
263.477802 14.307287 1004.039133 80 60 58
262.414559 73.575180 997.923441 89 63 62
260.715823 70.289680 1001.456009 137 114 116
261.994596 37.219416 1003.982142 115 94 99
262.504146 -60.065554 1016.779989 124 107 109
262.305995 59.750134 1003.712523 76 53 62
263.995100 27.307922 1005.287896 69 51 49
262.981919 -9.203668 1012.143932 135 116 128
263.534106 -9.108702 1011.530352 135 116 128
263.371982 -4.827485 1011.637359 81 60 71
262.214795 20.254739 1010.634805 138 118 121
266.014678 -51.992758 1016.230671 60 42 40
265.753411 -85.084022 1021.648241 76 55 65
264.218733 76.243777 1004.053993 141 123 119
271.589572 -380.471676 1054.446096 166 125 115
267.331541 -110.066958 1028.232259 76 55 65
267.331541 -110.066958 1028.232259 76 55 65
278.201710 -432.164569 1064.109133 164 128 128
321.881658 212.496246 917.639609 79 57 52
274.573739 -133.848607 1034.923067 87 64 70
278.880852 -176.259396 1035.790775 67 53 51
269.920528 -47.059841 1035.761602 74 65 68
282.810411 -182.115215 1043.010729 69 50 50
279.595804 -142.943825 1044.237731 57 42 49
279.595801 -142.943814 1044.237733 57 42 49
269.875136 -85.961534 1057.510168 145 117 122
288.571351 -214.945402 1053.355628 78 58 51
287.919918 -164.630011 1051.863669 126 101 114
353.142702 -93.926110 944.059145 131 106 120
306.335637 -433.099451 1060.663579 208 174 165
266.308061 124.724876 1046.896743 66 49 63
289.110141 -161.201218 1051.561850 126 101 118
270.975136 142.159575 1042.572746 87 71 86
276.433223 166.819176 1031.045745 161 126 120
250.955492 2.832823 1096.356337 146 126 120
269.606256 -57.250016 1075.609624 123 97 111
279.936258 -46.494021 1059.731569 89 78 92
320.154620 -148.137551 1011.388166 80 59 67
264.439012 -19.681161 1088.947284 73 60 69
274.466424 -37.481429 1076.145618 102 85 100
285.519188 -153.522031 1076.502685 72 56 62
264.891048 -12.266033 1096.942890 169 157 154
266.484424 -22.268785 1097.721376 128 106 119
273.535184 -104.284147 1102.313904 89 66 76
262.534984 40.808637 1101.577456 103 84 104
303.386080 -190.282478 1071.000420 130 105 119
272.955533 -93.223175 1108.779372 188 161 157
249.155231 -33.619373 1142.310131 119 96 101
258.967733 1.202621 1125.767576 154 132 127
256.932015 50.545427 1124.026531 128 109 118
276.770737 -107.833140 1115.535533 140 114 127
258.674378 13.301633 1127.235370 155 134 132
257.139865 57.879020 1126.820301 42 20 21
256.785233 48.142039 1129.320911 47 27 25
258.877302 57.893442 1127.892465 58 37 31
261.281187 -67.671456 1143.640635 146 124 127
261.281187 -67.671456 1143.640635 146 124 127
311.831422 -193.863178 1080.415540 127 102 118
252.949809 162.410371 1125.686501 39 25 26
311.843580 -199.282090 1081.441332 126 105 119
294.904164 -144.894739 1109.418686 137 116 123
263.902022 -55.257597 1149.017239 95 79 81
265.213284 -57.369936 1149.073906 68 46 50
315.880221 -198.515269 1085.175689 36 25 29
267.580344 -65.462049 1148.346971 146 123 127
347.147443 213.965734 973.599128 91 61 57
269.941686 -67.259202 1156.026237 148 126 129
269.941686 -67.259202 1156.026237 148 126 129
270.404099 -56.672132 1155.148680 68 46 49
270.772101 -52.905289 1157.688797 47 32 34
277.566303 142.855929 1121.548109 65 48 36
281.825450 -65.392441 1167.125068 134 112 114
285.578808 -18.480665 1153.575682 65 48 35
339.232295 -359.265862 1118.561733 66 43 37
335.514192 -213.476818 1106.463242 37 24 27
333.931191 -209.000200 1108.756155 100 79 82
288.655671 -107.813025 1174.279346 25 19 20
342.226040 -372.952517 1126.569599 194 161 151
344.238406 -242.624241 1106.446475 135 114 113
347.265602 -354.750033 1121.619423 108 81 83
296.126296 -119.702691 1176.279629 106 84 86
302.557864 -140.763623 1172.781600 61 48 56
335.630750 -441.072398 1167.363781 195 161 153
347.216822 -243.634254 1110.311286 141 120 123
349.358615 -244.922675 1114.812771 73 49 41
348.607910 -319.918358 1130.730434 45 27 27
345.697680 -218.343551 1118.504422 32 22 24
344.770673 -213.855900 1120.478005 89 67 76
357.507570 -456.703030 1150.845816 169 135 131
349.803946 -222.396859 1122.423054 71 48 57
357.206278 -407.128993 1146.254515 198 163 159
358.501069 -392.168204 1142.953839 92 63 48
356.300344 -328.343382 1137.149711 172 148 143
354.100559 -283.680269 1133.379862 87 57 55
359.548643 -399.506372 1145.004369 198 164 157
358.279324 -346.827340 1138.603106 151 132 134
353.985529 -277.463812 1133.151921 102 73 69
353.985529 -277.463812 1133.151921 102 73 69
354.472037 -287.395053 1134.418277 185 161 154
355.172841 -271.434257 1131.847942 116 86 78
363.408536 -384.703108 1140.592223 129 105 111
296.136713 43.170826 1186.001905 67 44 32
300.539774 38.432690 1180.274084 255 192 174
364.958858 -396.564880 1146.324570 120 86 69
354.720328 -217.350969 1132.170606 93 70 82
359.080442 -257.398510 1132.981192 154 126 114
366.661171 -440.471746 1159.128932 150 112 114
369.065417 -384.203639 1148.335481 75 53 46
370.862910 -388.025707 1150.842261 74 54 44
370.862910 -388.025707 1150.842261 74 54 44
367.413910 -248.625365 1134.270050 104 76 65
371.664078 -412.005183 1160.134417 192 160 154
369.926616 -368.240822 1155.989155 165 144 143
373.408111 -392.089295 1154.338788 62 43 35
385.615170 219.917422 1010.655098 130 93 83
373.315886 -353.308296 1165.573050 85 70 73
321.908082 -45.914124 1206.322701 44 35 36
321.160080 -41.629405 1207.956132 101 80 83
380.555153 -398.089769 1162.659817 48 32 27
380.334161 205.104198 1040.414564 101 73 67
324.938916 -46.540048 1212.663911 97 80 83
334.528060 -76.362812 1202.894421 76 43 30
376.817505 -229.615677 1148.524490 101 76 88
381.452658 -341.219892 1168.975647 83 63 58
381.452658 -341.219892 1168.975647 83 63 58
388.743065 -401.300335 1172.165993 40 25 19
378.123824 -218.554799 1154.869533 97 74 81
380.038761 -223.208216 1154.380719 38 26 29
380.038761 -223.208216 1154.380719 38 26 29
386.677826 -352.933249 1169.536584 138 118 115
385.820533 -386.030797 1180.987435 130 105 100
386.459580 -294.922194 1160.093516 86 57 58
